# .PCD v0.7 - Point Cloud Data file format
VERSION 0.7
FIELDS x y z rgb
SIZE 4 4 4 4
TYPE F F F F
COUNT 1 1 1 1
WIDTH 892
HEIGHT 1
VIEWPOINT 0 0 0 1 0 0 0
POINTS 892
DATA ascii
-21.46996498 -5.189984798 -3.626124144 2.13976706e-38
-21.35057068 -5.252017498 -3.609451532 2.13976706e-38
-21.24720192 -5.317296505 -3.5955863 2.13976706e-38
-21.20296288 -5.396873474 -3.591738939 2.13976706e-38
-21.14229584 -5.47204113 -3.585164785 2.13976706e-38
-21.04410934 -5.536994457 -3.57229352 2.13976706e-38
-20.88456345 -5.584820271 -3.548943281 2.14895061e-38
-20.88723564 -5.675648212 -3.553250074 2.14895061e-38
-20.76823807 -5.733030796 -3.536880016 2.14895061e-38
-20.70746231 -5.805979252 -3.530511856 2.14895061e-38
-20.61823082 -5.87046051 -3.519293547 2.14895061e-38
-20.56422615 -5.944524288 -3.514116287 2.14895061e-38
-20.49617958 -6.014294624 -3.506607771 2.14895061e-38
-20.33165359 -6.143929958 -3.486789942 2.14895061e-38
-20.27040863 -6.214468002 -3.480545521 2.14895061e-38
-20.14550591 -6.264886379 -3.463398218 2.14895061e-38
-19.99681473 -6.395430565 -3.446547508 2.14895061e-38
-19.87291336 -6.443974018 -3.429656744 2.14895061e-38
-19.81532669 -6.513436794 -3.424188852 2.14895061e-38
-19.64351082 -6.632437706 -3.403630495 2.14895061e-38
-19.58798981 -6.701514721 -3.398634434 2.14895061e-38
-19.54901886 -6.776054859 -3.39656353 2.15813416e-38
-19.4216938 -6.819554806 -3.37921381 2.15813416e-38
-19.40785027 -6.902406693 -3.381583691 2.15813416e-38
-19.33485603 -6.96415329 -3.373707056 2.15813416e-38
-19.25237656 -7.022006989 -3.364201307 2.15813416e-38
-19.0939579 -7.138675213 -3.346470356 2.15813416e-38
-18.97625732 -7.181777 -3.330869198 2.15813416e-38
-18.93603516 -7.253665924 -3.328876019 2.15813416e-38
-18.88261986 -7.320397377 -3.324669361 2.15813416e-38
-18.77108955 -7.364119053 -3.31021452 2.15813416e-38
-18.70320892 -7.424361229 -3.303471088 2.15813416e-38
-18.5749073 -7.546853542 -3.291401148 2.15813416e-38
-18.46712303 -7.589688301 -3.277675867 2.15813416e-38
-18.39575386 -7.646927357 -3.270426512 2.15813416e-38
-18.32819366 -7.705420971 -3.263918638 2.15813416e-38
-18.26872063 -7.766969681 -3.258872032 2.15813416e-38
-18.24718094 -7.844577789 -3.260609388 2.15813416e-38
-18.24925423 -7.932555676 -3.266644239 2.15813416e-38
-18.21813011 -8.006254196 -3.266838312 2.15813416e-38
-18.11976433 -8.137460709 -3.260834932 2.15813416e-38
-18.09404945 -8.213478088 -3.262122154 2.15813416e-38
-18.066082 -8.288514137 -3.26305294 2.15813416e-38
-18.06907463 -8.377941132 -3.269624233 2.15813416e-38
-16.72267532 -7.835378647 -3.031602621 2.176501259e-38
-16.70873642 -7.910917282 -3.034817219 2.176501259e-38
-16.62241745 -7.952024937 -3.024923086 2.176501259e-38
-16.54241753 -7.995613098 -3.016188622 2.176501259e-38
-16.64180565 -8.126335144 -3.040241718 2.176501259e-38
-17.8011837 -8.781441689 -3.258557796 2.15813416e-38
-17.86458969 -8.902152061 -3.276656866 2.15813416e-38
-17.79263496 -9.045633316 -3.276700974 2.15813416e-38
-17.72686577 -9.102054596 -3.271319866 2.15813416e-38
-17.70061302 -9.178685188 -3.273287296 2.15813416e-38
-17.65775681 -9.246741295 -3.272196531 2.15813416e-38
-17.64898491 -9.332712173 -3.277460575 2.15813416e-38
-17.5696373 -9.381360054 -3.269748211 2.15813416e-38
-17.5623951 -9.468429565 -3.275418043 2.15813416e-38
-17.55885506 -9.557775497 -3.281885147 2.15813416e-38
-17.52573586 -9.631231308 -3.282916069 2.15813416e-38
-17.46563339 -9.689891815 -3.278954029 2.15813416e-38
-17.43840599 -9.766680717 -3.281208277 2.15813416e-38
-17.39460754 -9.834189415 -3.280352831 2.15813416e-38
-17.35199356 -9.995080948 -3.287382603 2.15813416e-38
-17.33314896 -10.07719421 -3.291441917 2.15813416e-38
-17.24722672 -10.12023544 -3.282804489 2.15813416e-38
-17.23815346 -10.20825481 -3.288846493 2.15813416e-38
-17.1912899 -10.27410507 -3.287791491 2.15813416e-38
-17.18228912 -10.36267471 -3.293974161 2.15813416e-38
-17.1631279 -10.44542503 -3.298355579 2.15813416e-38
-17.10130882 -10.50226879 -3.294542789 2.15813416e-38
-17.0489502 -10.56472492 -3.292615891 2.15813416e-38
-17.03488731 -10.65099907 -3.298143864 2.15813416e-38
-16.99256134 -10.71981239 -3.298265696 2.15813416e-38
-17.0400486 -10.84580421 -3.315950394 2.15813416e-38
-16.93875122 -10.87721157 -3.304700136 2.15813416e-38
-16.96312332 -10.98942471 -3.31804657 2.15813416e-38
-16.85499763 -11.01580334 -3.305526018 2.15813416e-38
-16.80371666 -11.07898331 -3.304175615 2.15813416e-38
-16.76323509 -11.14924335 -3.305024385 2.15813416e-38
-16.73076057 -11.22490025 -3.307468414 2.15813416e-38
-16.72184181 -11.31666946 -3.314684868 2.15813416e-38
-16.60338211 -11.33409977 -3.300225019 2.15813416e-38
-16.60696793 -11.43468666 -3.310061455 2.15813416e-38
-16.49032021 -11.45230293 -3.295907974 2.15813416e-38
-16.47397041 -11.53940392 -3.301891088 2.15813416e-38
-16.43562508 -11.61129951 -3.303528309 2.15813416e-38
-16.31460953 -11.72359371 -3.298061371 2.15813416e-38
-16.27404594 -11.79393196 -3.299418449 2.15813416e-38
-16.23928833 -11.8686409 -3.302029133 2.15813416e-38
-16.1959095 -11.93705177 -3.302917957 2.15813416e-38
-16.112957 -11.9761343 -3.295773506 2.15813416e-38
-16.08649445 -12.05722427 -3.300294638 2.15813416e-38
-16.02752495 -12.11392307 -3.29811883 2.15813416e-38
-16.0175705 -12.20790958 -3.306165934 2.15813416e-38
-15.93469429 -12.2462883 -3.299207687 2.15813416e-38
-15.86822796 -12.29698753 -3.29565382 2.15813416e-38
-15.83102512 -12.37035179 -3.298209906 2.15813416e-38
-15.77452374 -12.42868519 -3.296866655 2.15813416e-38
-15.71460819 -12.4841423 -3.29475069 2.15813416e-38
-15.6458292 -12.63601589 -3.301552534 2.15813416e-38
-15.54103851 -12.65493584 -3.290122509 2.15813416e-38
-15.53104019 -12.75096321 -3.298844099 2.15813416e-38
-15.47335243 -12.80809784 -3.29750967 2.15813416e-38
-15.42193127 -12.87032318 -3.297501326 2.15813416e-38
-15.3582859 -12.92234039 -3.295006037 2.15813416e-38
-15.34285164 -13.01503754 -3.302915812 2.15813416e-38
-15.27978325 -13.06750298 -3.300565004 2.15813416e-38
-15.26149654 -13.15848351 -3.308055639 2.15813416e-38
-15.19589901 -13.20882797 -3.305332422 2.15813416e-38
-15.12141228 -13.25112438 -3.30066967 2.15813416e-38
-15.08446121 -13.32637787 -3.30427599 2.15813416e-38
-15.03389072 -13.38962746 -3.304960728 2.15813416e-38
-14.98286343 -13.45263195 -3.305624962 2.15813416e-38
-14.94730854 -13.52962589 -3.309770346 2.15813416e-38
-14.88151455 -13.57929802 -3.307237625 2.15813416e-38
-14.8123951 -13.73609543 -3.316319466 2.15813416e-38
-14.70990562 -13.75145531 -3.305696011 2.15813416e-38
-14.70249271 -13.85569191 -3.316547155 2.15813416e-38
-14.60404396 -13.87417793 -3.306896687 2.15813416e-38
-14.57349586 -13.95702076 -3.312644243 2.15813416e-38
-14.51697254 -14.01518059 -3.312557697 2.15813416e-38
-14.48688889 -14.09912205 -3.318627596 2.15813416e-38
-14.31488514 -14.27193356 -3.318417788 2.15813416e-38
-14.28861427 -14.360672 -3.325646639 2.15813416e-38
-14.23684406 -14.42416763 -3.327099085 2.15813416e-38
-14.14588261 -14.44773865 -3.319368124 2.15813416e-38
-14.12895393 -14.54695702 -3.329087019 2.15813416e-38
-14.13801098 -14.67382526 -3.345081091 2.15813416e-38
-14.14720631 -14.80205154 -3.361334085 2.15813416e-38
-14.07355309 -14.84396839 -3.357980728 2.15813416e-38
-14.12477493 -15.01846981 -3.384575367 2.15813416e-38
-14.13852882 -15.1546669 -3.402449131 2.14895061e-38
-14.12955189 -15.26762199 -3.415027857 2.14895061e-38
-14.14252949 -15.40548229 -3.433137178 2.14895061e-38
-14.14499187 -15.53302193 -3.448832989 2.14895061e-38
-14.14324284 -15.78416824 -3.47921586 2.14895061e-38
-14.14828777 -15.91806889 -3.496185303 2.14895061e-38
-14.15888023 -16.05953598 -3.514740229 2.14895061e-38
-14.14872456 -16.17866135 -3.52833581 2.14895061e-38
-14.15502357 -16.31778336 -3.54622221 2.14895061e-38
-14.20222187 -16.50574303 -3.574619055 2.14895061e-38
-14.15211868 -16.58192825 -3.57879734 2.13976706e-38
-14.16696358 -16.73510551 -3.599520445 2.13976706e-38
-14.11977482 -16.81594658 -3.604664564 2.13976706e-38
-14.14197445 -16.98053551 -3.627743721 2.13976706e-38
-14.14390087 -17.12232971 -3.645834446 2.13976706e-38
-14.17444229 -17.30056953 -3.671662092 2.13976706e-38
-14.12739086 -17.38519478 -3.677532673 2.13976706e-38
-14.14650059 -17.55237007 -3.70083189 2.13976706e-38
-14.17542839 -17.73370934 -3.727005005 2.13976706e-38
-14.15918255 -17.86014366 -3.741584778 2.130583511e-38
-14.19795227 -18.05768967 -3.770994902 2.130583511e-38
-14.18348694 -18.18931198 -3.786551476 2.130583511e-38
-14.15725994 -18.30693817 -3.799151659 2.130583511e-38
-14.19882202 -18.51401711 -3.830252409 2.130583511e-38
-14.19115734 -18.65884209 -3.848371029 2.130583511e-38
-14.11718178 -18.71718407 -3.848615408 2.130583511e-38
-14.0355444 -18.76537132 -3.84688735 2.130583511e-38
-13.96521568 -18.82871819 -3.848332167 2.130583511e-38
-13.86377621 -18.84984016 -3.841227293 2.130583511e-38
-13.84323406 -18.98130226 -3.856646776 2.130583511e-38
-13.73081303 -18.98703384 -3.846564054 2.130583511e-38
-13.61952972 -18.99341965 -3.836738586 2.130583511e-38
-13.59505367 -19.12115479 -3.851471901 2.130583511e-38
-13.54538441 -19.2143631 -3.859245062 2.130583511e-38
-13.42456913 -19.20650101 -3.846793652 2.130583511e-38
-13.33058453 -19.23623276 -3.841987371 2.130583511e-38
-13.19548321 -19.372118 -3.847815037 2.130583511e-38
-12.99780655 -19.41558838 -3.835569859 2.130583511e-38
-12.96551991 -19.53682137 -3.849186659 2.130583511e-38
-12.88807678 -19.59060478 -3.849545956 2.130583511e-38
-12.79640675 -19.6225605 -3.845686674 2.130583511e-38
-12.69575024 -19.64032936 -3.839138985 2.130583511e-38
-12.63963604 -19.72705078 -3.846122503 2.130583511e-38
-12.57719326 -19.80443192 -3.851321936 2.130583511e-38
-12.47023201 -19.81146812 -3.842910528 2.130583511e-38
-12.41883373 -19.90691948 -3.851708889 2.130583511e-38
-12.34902191 -19.97336006 -3.854928255 2.130583511e-38
-12.25649452 -20.00301552 -3.851113558 2.130583511e-38
-12.18373966 -20.06488228 -3.853564262 2.130583511e-38
-12.07033539 -20.05945206 -3.843173265 2.130583511e-38
-12.00317097 -20.13063431 -3.847527266 2.130583511e-38
-11.93352985 -20.19794846 -3.851197481 2.130583511e-38
-11.75479794 -20.26578712 -3.845981359 2.130583511e-38
-11.67187405 -20.31040764 -3.845521212 2.130583511e-38
-11.59930515 -20.37336159 -3.848574638 2.130583511e-38
-11.49812698 -20.38575363 -3.842157602 2.130583511e-38
-11.44017601 -20.47495461 -3.850268841 2.130583511e-38
-11.34550667 -20.49860001 -3.846109867 2.130583511e-38
-11.27629757 -20.56830978 -3.850651026 2.130583511e-38
-11.09694767 -20.63295364 -3.845926046 2.130583511e-38
-11.0406599 -20.72755623 -3.855257511 2.130583511e-38
-10.93185234 -20.72369003 -3.846334696 2.130583511e-38
-10.85916328 -20.78800774 -3.850135565 2.130583511e-38
-10.76801395 -20.81695557 -3.847448826 2.130583511e-38
-10.58744144 -20.87746239 -3.842779636 2.130583511e-38
-10.49390984 -20.90085793 -3.839290857 2.130583511e-38
-10.35593605 -21.04636955 -3.850598574 2.130583511e-38
-10.15891266 -21.07196045 -3.840211868 2.130583511e-38
-10.11466026 -21.19761467 -3.855667591 2.130583511e-38
-10.01741314 -21.21278191 -3.851073027 2.130583511e-38
-9.933546066 -21.25609207 -3.851655722 2.130583511e-38
-9.860031128 -21.32178307 -3.856343746 2.130583511e-38
-9.745812416 -21.29919815 -3.845138788 2.130583511e-38
-9.668040276 -21.35568047 -3.84828949 2.130583511e-38
-9.594773293 -21.4227047 -3.853384256 2.130583511e-38
-9.501703262 -21.44551468 -3.850585461 2.130583511e-38
-9.41587162 -21.48457527 -3.850776196 2.130583511e-38
-9.319677353 -21.49973297 -3.846743584 2.130583511e-38
-9.522732735 -22.46138763 -4.004977226 2.121399961e-38
-9.416952133 -22.46266937 -3.998424053 2.121399961e-38
-9.334211349 -22.51874733 -4.001696587 2.121399961e-38
-9.240077019 -22.54749489 -4.0001688 2.121399961e-38
-9.165408134 -22.62408447 -4.007188797 2.121399961e-38
-9.047596931 -22.5938549 -3.995359659 2.121399961e-38
-8.947178841 -22.60590363 -3.991101027 2.121399961e-38
-8.881699562 -22.70689011 -4.002588272 2.121399961e-38
-8.788713455 -22.73814011 -4.001842022 2.121399961e-38
-8.620955467 -22.84871674 -4.008972645 2.121399961e-38
-8.505758286 -22.82074928 -3.998033762 2.121399961e-38
-8.431204796 -22.90162849 -4.006233215 2.121399961e-38
-8.318655014 -22.87913704 -3.996417046 2.121399961e-38
-8.234523773 -22.93439865 -4.000252724 2.121399961e-38
-8.135341644 -22.94779778 -3.996857405 2.121399961e-38
-8.052288055 -23.00683403 -4.001467228 2.121399961e-38
-7.853196621 -23.03015518 -3.994413614 2.121399961e-38
-7.744353294 -23.01335716 -3.986065626 2.121399961e-38
-7.687819958 -23.15286636 -4.00484705 2.121399961e-38
-7.57572937 -23.12573624 -3.994853973 2.121399961e-38
-7.49187994 -23.18440437 -3.999752522 2.121399961e-38
-7.396493912 -23.2076416 -3.99860096 2.121399961e-38
-7.314371109 -23.27297401 -4.004756451 2.121399961e-38
-7.20651722 -23.25621414 -3.996855497 2.121399961e-38
-7.12279892 -23.31719589 -4.002385139 2.121399961e-38
-7.005085945 -23.26618195 -3.988760948 2.121399961e-38
-6.940354824 -23.3913269 -4.005401134 2.121399961e-38
-6.82712841 -23.35363388 -3.994217873 2.121399961e-38
-6.735600471 -23.38922691 -3.995640516 2.121399961e-38
-6.464054108 -23.50874519 -4.002449989 2.121399961e-38
-6.367172241 -23.52592468 -4.000984669 2.121399961e-38
-6.183796883 -23.59929466 -4.004875183 2.121399961e-38
-6.08689785 -23.6161232 -4.003548145 2.121399961e-38
-5.889828682 -23.63622475 -3.998796225 2.121399961e-38
-5.802559376 -23.69163895 -4.004191875 2.121399961e-38
-5.701555729 -23.69086647 -4.00015974 2.121399961e-38
-5.607390881 -23.71847153 -4.000981331 2.121399961e-38
-5.511467457 -23.73847961 -4.000583172 2.121399961e-38
-5.431434631 -23.82813072 -4.011981487 2.121399961e-38
-5.318032742 -23.77122498 -3.998770475 2.121399961e-38
-5.208265305 -23.72795486 -3.987934113 2.121399961e-38
-5.133385181 -23.84407425 -4.003950596 2.121399961e-38
-5.011211395 -23.7400322 -3.983063698 2.121399961e-38
-4.933129787 -23.84412003 -3.997170925 2.121399961e-38
-4.841375351 -23.88419342 -4.00058794 2.121399961e-38
-4.652527809 -23.93955421 -4.003469467 2.121399961e-38
-4.549927235 -23.92459488 -3.997876406 2.121399961e-38
-4.458708286 -23.96957207 -4.002364635 2.121399961e-38
-4.36698246 -24.01293755 -4.006639481 2.121399961e-38
-4.107831955 -23.11541748 -3.854098082 2.130583511e-38
-4.014052391 -23.12697792 -3.853308678 2.130583511e-38
-3.909866095 -23.07696724 -3.842324495 2.130583511e-38
-3.824006319 -23.13461304 -3.849332571 2.130583511e-38
-3.7276721 -23.12919426 -3.845903635 2.130583511e-38
-3.538897276 -23.14071465 -3.842966795 2.130583511e-38
-3.445222855 -23.15057564 -3.84227252 2.130583511e-38
-3.265838623 -23.2263279 -3.850362062 2.130583511e-38
-3.165177584 -23.18598366 -3.841533661 2.130583511e-38
-3.078018665 -23.24451065 -3.849152327 2.130583511e-38
-2.980606079 -23.22602272 -3.844074488 2.130583511e-38
-2.892604828 -23.28104782 -3.851223946 2.130583511e-38
-2.791125059 -23.22710419 -3.840414047 2.130583511e-38
-2.702935457 -23.28284836 -3.847802877 2.130583511e-38
-2.606455326 -23.26779175 -3.843554258 2.130583511e-38
-2.515584946 -23.30313301 -3.847688437 2.130583511e-38
-2.420768023 -23.3022213 -3.845903635 2.130583511e-38
-2.139131784 -23.32476234 -3.845091581 2.130583511e-38
-2.045544863 -23.33551025 -3.845466375 2.130583511e-38
-1.857019544 -23.34069252 -3.843735218 2.130583511e-38
-1.766485691 -23.39187622 -3.850966692 2.130583511e-38
-1.670007944 -23.36476898 -3.845369577 2.130583511e-38
-1.576542258 -23.37817192 -3.846502304 2.130583511e-38
-1.485140324 -23.42559624 -3.853285074 2.130583511e-38
-1.38957262 -23.40767097 -3.849391699 2.130583511e-38
-1.295691609 -23.41749382 -3.850119829 2.130583511e-38
-1.197653413 -23.34621429 -3.837577581 2.130583511e-38
-1.105423689 -23.38569832 -3.843301296 2.130583511e-38
-1.011737704 -23.39711189 -3.844480753 2.130583511e-38
-0.9166092277 -23.37385559 -3.840022564 2.130583511e-38
-0.8255794048 -23.46105385 -3.853769302 2.130583511e-38
-0.7286057472 -23.37937546 -3.839840412 2.130583511e-38
-0.6367027164 -23.45824814 -3.852348328 2.130583511e-38
-0.5414459705 -23.41990089 -3.845662832 2.130583511e-38
-0.4475952387 -23.43674088 -3.848161221 2.130583511e-38
-0.3514655232 -23.31505203 -3.82791543 2.130583511e-38
-0.2564458251 -23.19688797 -3.808319092 2.130583511e-38
-0.1627749652 -23.14078522 -3.798980951 2.130583511e-38
-0.06939140707 -23.02123451 -3.779257536 2.130583511e-38
0.02307787165 -22.96129227 -3.769444227 2.130583511e-38
0.1150243357 -22.88527298 -3.756953955 2.130583511e-38
0.2064046264 -22.81913757 -3.746247053 2.130583511e-38
0.2952047884 -22.59249878 -3.709203243 2.13976706e-38
0.4749255776 -22.49846649 -3.694270611 2.13976706e-38
0.564645946 -22.46951294 -3.689869165 2.13976706e-38
0.6535949111 -22.41976547 -3.682068586 2.13976706e-38
0.7400525212 -22.30749702 -3.664062977 2.13976706e-38
0.8270421624 -22.23178864 -3.652163982 2.13976706e-38
0.9140815735 -22.17174721 -3.642908573 2.13976706e-38
0.9965175986 -22.02044106 -3.618654013 2.13976706e-38
1.081998944 -21.95440865 -3.608458042 2.13976706e-38
1.166712761 -21.88358879 -3.597587109 2.13976706e-38
1.333517671 -21.72585297 -3.573294163 2.13976706e-38
1.417279124 -21.66565323 -3.564314127 2.14895061e-38
1.502032518 -21.62617493 -3.558772802 2.14895061e-38
1.580640793 -21.50662041 -3.540132999 2.14895061e-38
1.660330415 -21.41303444 -3.52580142 2.14895061e-38
1.744561672 -21.3837719 -3.522102356 2.14895061e-38
1.81835115 -21.23480034 -3.4987607 2.14895061e-38
1.901519299 -21.20276451 -3.494697809 2.14895061e-38
1.978575349 -21.10783386 -3.480336189 2.14895061e-38
2.058467865 -21.04902267 -3.471949339 2.14895061e-38
2.131324768 -20.92550659 -3.45294714 2.14895061e-38
2.213997602 -20.90291786 -3.450684547 2.14895061e-38
2.294870377 -20.8656044 -3.446053267 2.14895061e-38
2.366933584 -20.75263596 -3.428915024 2.14895061e-38
2.440976143 -20.66392136 -3.415835857 2.14895061e-38
2.740604639 -20.38192558 -3.376055241 2.15813416e-38
2.884735823 -20.22119713 -3.353200436 2.15813416e-38
2.959376335 -20.16438103 -3.345726728 2.15813416e-38
3.039776325 -20.14824104 -3.345059156 2.15813416e-38
3.115133524 -20.09932899 -3.338992119 2.15813416e-38
3.182854891 -20.00471497 -3.325362206 2.15813416e-38
3.254136801 -19.93595123 -3.316062212 2.15813416e-38
3.326186895 -19.87464523 -3.308083773 2.15813416e-38
3.405409575 -19.85720634 -3.307427168 2.15813416e-38
3.473243475 -19.77549171 -3.296107054 2.15813416e-38
3.553493738 -19.76553154 -3.296784163 2.15813416e-38
3.622626066 -19.69526291 -3.287480116 2.15813416e-38
3.695045471 -19.64451218 -3.281493425 2.15813416e-38
3.764473915 -19.58006096 -3.273203611 2.15813416e-38
3.839397669 -19.54574394 -3.270007133 2.15813416e-38
3.915144444 -19.51614761 -3.267690659 2.15813416e-38
4.044996738 -19.35529518 -3.246078491 2.15813416e-38
4.121908665 -19.33480835 -3.245415211 2.15813416e-38
4.191811085 -19.28221512 -3.239412785 2.15813416e-38
4.259097576 -19.21936989 -3.231669903 2.15813416e-38
4.331602573 -19.18092918 -3.228128195 2.15813416e-38
4.397367477 -19.1143856 -3.219872236 2.167317709e-38
4.456638813 -19.02175903 -3.207278967 2.167317709e-38
4.536565781 -19.0181694 -3.209663153 2.167317709e-38
4.597045422 -18.93430138 -3.198605299 2.167317709e-38
4.659263134 -18.85941887 -3.189156532 2.167317709e-38
4.741242886 -18.86544991 -3.193324089 2.167317709e-38
4.80260849 -18.78961372 -3.183748245 2.167317709e-38
4.940321922 -18.70052719 -3.175292492 2.167317709e-38
4.998995304 -18.61917114 -3.164838076 2.167317709e-38
5.048429966 -18.50596809 -3.149030447 2.167317709e-38
5.127249718 -18.50160217 -3.151774168 2.167317709e-38
5.187019825 -18.42905807 -3.142940044 2.167317709e-38
5.325005531 -18.3523674 -3.137002468 2.167317709e-38
5.439776421 -18.19969749 -3.118329048 2.167317709e-38
5.515313625 -18.1858654 -3.119760513 2.167317709e-38
5.584881306 -18.15193748 -3.117750883 2.167317709e-38
5.648639202 -18.10003471 -3.112721443 2.167317709e-38
5.69664669 -17.99915123 -3.099279165 2.167317709e-38
5.743927002 -17.89809036 -3.085821867 2.167317709e-38
5.807358742 -17.84874916 -3.081337929 2.167317709e-38
5.881572723 -17.8330555 -3.082698107 2.167317709e-38
5.933242798 -17.74940491 -3.072307348 2.167317709e-38
6.000346661 -17.71306229 -3.070154905 2.167317709e-38
6.071632862 -17.68922997 -3.070244074 2.167317709e-38
6.141232014 -17.66040039 -3.069498062 2.167317709e-38
6.17072773 -17.51797485 -3.049023628 2.167317709e-38
6.239851475 -17.48954582 -3.048452377 2.176501259e-38
6.299497128 -17.43494606 -3.043290377 2.176501259e-38
6.345329762 -17.34327507 -3.031706095 2.176501259e-38
6.430245399 -17.35877419 -3.03891921 2.176501259e-38
6.495341778 -17.3204937 -3.03677845 2.176501259e-38
6.51030302 -17.15032196 -3.011512756 2.176501259e-38
6.598750114 -17.17500877 -3.020491362 2.176501259e-38
6.652766705 -17.10988426 -3.013720036 2.176501259e-38
6.706851482 -17.04570198 -3.00711441 2.176501259e-38
6.75743103 -16.97364044 -2.999149799 2.176501259e-38
6.818390846 -16.92844391 -2.99599719 2.176501259e-38
6.866981983 -16.85324478 -2.987565994 2.176501259e-38
7.058578491 -16.74281311 -2.982882738 2.176501259e-38
7.108791351 -16.67435455 -2.975713015 2.176501259e-38
7.174825191 -16.64345169 -2.975339413 2.176501259e-38
7.213722229 -16.55034447 -2.963858366 2.176501259e-38
7.287231922 -16.53715897 -2.966735363 2.176501259e-38
7.320754528 -16.43389511 -2.953454494 2.176501259e-38
7.394114971 -16.42063141 -2.956377983 2.176501259e-38
7.427632809 -16.31951714 -2.943488121 2.176501259e-38
7.46850729 -16.23587608 -2.933816433 2.176501259e-38
7.541656017 -16.2228756 -2.936937809 2.176501259e-38
7.601725101 -16.18162537 -2.934991121 2.176501259e-38
7.642273426 -16.09938812 -2.925613642 2.176501259e-38
7.729625225 -16.11589813 -2.934207201 2.176501259e-38
7.757404327 -16.00846481 -2.920300245 2.176501259e-38
7.80449152 -15.94199181 -2.913862228 2.176501259e-38
7.868719101 -15.91090012 -2.913961887 2.176501259e-38
7.904033184 -15.8220396 -2.903488874 2.176501259e-38
7.971637249 -15.79813862 -2.904974937 2.176501259e-38
8.012439728 -15.72144222 -2.896750689 2.176501259e-38
8.07942009 -15.69660664 -2.898128033 2.176501259e-38
8.132933617 -15.64573574 -2.894785404 2.176501259e-38
8.162175179 -15.54885483 -2.882913589 2.176501259e-38
8.275217056 -15.46090126 -2.878808498 2.176501259e-38
8.35333252 -15.45711613 -2.884325743 2.176501259e-38
8.390236855 -15.37738323 -2.875762463 2.185684809e-38
8.457858086 -15.35414124 -2.877744913 2.185684809e-38
8.522542 -15.32549858 -2.878781319 2.185684809e-38
8.536143303 -15.20577049 -2.862694263 2.185684809e-38
8.614682198 -15.20221233 -2.868521452 2.185684809e-38
8.658818245 -15.13787746 -2.862895966 2.185684809e-38
8.69239521 -15.05579185 -2.853978395 2.185684809e-38
8.767961502 -15.04666328 -2.858920574 2.185684809e-38
8.790267944 -14.94648647 -2.846560717 2.185684809e-38
8.844641685 -14.90149117 -2.844754934 2.185684809e-38
8.899263382 -14.85716724 -2.843092203 2.185684809e-38
8.917157173 -14.75220585 -2.829824448 2.185684809e-38
9.002984047 -14.75983143 -2.838220358 2.185684809e-38
9.070482254 -14.73682308 -2.840786457 2.185684809e-38
9.107658386 -14.66480541 -2.833969831 2.185684809e-38
9.18642807 -14.65989113 -2.840138197 2.185684809e-38
9.232872009 -14.603158 -2.836299658 2.185684809e-38
9.276871681 -14.54304218 -2.831841469 2.185684809e-38
9.322523117 -14.48583508 -2.827963352 2.185684809e-38
9.383919716 -14.4532547 -2.828919888 2.185684809e-38
9.425940514 -14.39098644 -2.824140549 2.185684809e-38
9.512180328 -14.39605045 -2.832622766 2.185684809e-38
9.720953941 -14.33313942 -2.843131065 2.185684809e-38
9.728667259 -14.22119904 -2.828644753 2.185684809e-38
9.814592361 -14.22369957 -2.836969137 2.185684809e-38
9.84005928 -14.13865185 -2.827878714 2.185684809e-38
9.94004631 -14.16052437 -2.840192556 2.185684809e-38
9.934358597 -14.0322361 -2.822461128 2.185684809e-38
9.994585991 -13.9975462 -2.823525906 2.185684809e-38
10.05099869 -13.95763302 -2.823616743 2.185684809e-38
10.16264915 -13.99372864 -2.839149952 2.185684809e-38
10.22475433 -13.84377003 -2.825342894 2.185684809e-38
10.30415058 -13.83453846 -2.831882715 2.185684809e-38
10.33741188 -13.76334 -2.825795412 2.185684809e-38
10.40553856 -13.73869896 -2.829287052 2.185684809e-38
10.45404148 -13.68810081 -2.827493906 2.185684809e-38
10.55026722 -13.69950581 -2.838592529 2.185684809e-38
10.56033039 -13.59915161 -2.826574326 2.185684809e-38
10.68306828 -13.53123474 -2.830216169 2.185684809e-38
10.71403408 -13.45877838 -2.824053049 2.185684809e-38
10.78545856 -13.43731499 -2.82861948 2.185684809e-38
10.83935642 -13.39385033 -2.828626394 2.185684809e-38
10.8816328 -13.33609867 -2.825658083 2.185684809e-38
10.92778206 -13.28324318 -2.823721409 2.185684809e-38
11.00559616 -13.26878166 -2.830022097 2.185684809e-38
11.04977703 -13.21359158 -2.827726603 2.185684809e-38
11.08994484 -13.15375137 -2.824404955 2.185684809e-38
11.18238735 -13.15581703 -2.834485769 2.185684809e-38
11.22877216 -13.10319996 -2.832875252 2.185684809e-38
11.26574993 -13.03997135 -2.828961134 2.185684809e-38
11.33977032 -13.01945114 -2.834429264 2.185684809e-38
11.34934998 -12.92508698 -2.823750496 2.185684809e-38
11.41255665 -12.89228058 -2.826586723 2.185684809e-38
11.47947598 -12.86322308 -2.830298424 2.185684809e-38
11.5569191 -12.84577942 -2.83668685 2.185684809e-38
11.60604858 -12.79648876 -2.836071491 2.185684809e-38
11.683424 -12.77819824 -2.842401743 2.185684809e-38
11.68585491 -12.67811298 -2.830543518 2.185684809e-38
11.79120731 -12.68972969 -2.843683004 2.185684809e-38
11.8139534 -12.61212921 -2.836937428 2.185684809e-38
11.85737991 -12.55694485 -2.835229874 2.185684809e-38
11.93416309 -12.53690052 -2.841513634 2.185684809e-38
11.95504951 -12.45819759 -2.834542274 2.185684809e-38
12.03791046 -12.44401073 -2.842292547 2.185684809e-38
12.06946564 -12.37670708 -2.8379848 2.185684809e-38
12.15596199 -12.36547852 -2.846565962 2.185684809e-38
12.20201874 -12.31298447 -2.845779181 2.185684809e-38
12.27023506 -12.2826767 -2.850147724 2.185684809e-38
12.30320263 -12.21707344 -2.846383572 2.185684809e-38
12.36571312 -12.18082237 -2.849474669 2.185684809e-38
12.42128277 -12.13753033 -2.851048708 2.185684809e-38
12.50208569 -12.11864376 -2.858382225 2.185684809e-38
12.54903698 -12.06666565 -2.857996702 2.185684809e-38
12.61338806 -12.03133011 -2.861609697 2.185684809e-38
12.67672157 -11.99478722 -2.865041494 2.185684809e-38
12.7240839 -11.94300652 -2.864820957 2.185684809e-38
12.76178455 -11.88226795 -2.862541914 2.185684809e-38
12.84958553 -11.86795712 -2.871517658 2.185684809e-38
12.87244987 -11.79354954 -2.866048336 2.185684809e-38
12.93490028 -11.75545311 -2.869371176 2.185684809e-38
13.07569122 -11.69284058 -2.87964654 2.185684809e-38
13.10197163 -11.62188339 -2.87512207 2.185684809e-38
13.18995476 -11.60554981 -2.884151459 2.176501259e-38
13.21014786 -11.52944756 -2.878469467 2.176501259e-38
13.25494766 -11.47494507 -2.878103256 2.176501259e-38
13.31864166 -11.43682194 -2.881987333 2.176501259e-38
13.37910271 -11.39557648 -2.885107279 2.176501259e-38
13.48580837 -11.39322567 -2.898178577 2.176501259e-38
13.50154591 -11.3138752 -2.891771555 2.176501259e-38
13.56327915 -11.27303123 -2.895259142 2.176501259e-38
13.61096764 -11.22050858 -2.895841599 2.176501259e-38
13.64393616 -11.15584469 -2.893259048 2.176501259e-38
13.75873852 -11.15771866 -2.908049345 2.176501259e-38
13.77657318 -11.08066559 -2.902407169 2.176501259e-38
13.91843319 -11.01172256 -2.913575172 2.176501259e-38
13.92902565 -10.92928314 -2.906548738 2.176501259e-38
14.03003502 -10.82749939 -2.909404516 2.176501259e-38
14.10268211 -10.79336452 -2.91541481 2.176501259e-38
14.19378281 -10.77287388 -2.925266504 2.176501259e-38
14.24474144 -10.72155762 -2.926849604 2.176501259e-38
14.33963776 -10.70299625 -2.937515259 2.176501259e-38
14.3742981 -10.63916588 -2.935787916 2.176501259e-38
14.43990231 -10.59810257 -2.940455198 2.176501259e-38
14.42414284 -10.49761105 -2.928662777 2.176501259e-38
14.52233601 -10.48000717 -2.940033197 2.176501259e-38
14.55764389 -10.41675663 -2.938653469 2.176501259e-38
14.62478352 -10.37614155 -2.943779469 2.176501259e-38
14.67573261 -10.32385063 -2.945636749 2.176501259e-38
14.77223682 -10.30323315 -2.956680775 2.176501259e-38
14.77605247 -10.2178154 -2.949188948 2.176501259e-38
14.86170578 -10.18897915 -2.958083868 2.176501259e-38
15.00315666 -10.1096077 -2.969944954 2.176501259e-38
14.99181747 -10.0145874 -2.959756136 2.176501259e-38
15.12798405 -10.01780796 -2.978613138 2.176501259e-38
15.16739464 -9.956474304 -2.978539705 2.176501259e-38
15.20834827 -9.89610672 -2.978713512 2.176501259e-38
15.23090267 -9.823866844 -2.975376368 2.176501259e-38
15.31451607 -9.790793419 -2.983979464 2.176501259e-38
15.40370655 -9.760859489 -2.993683815 2.176501259e-38
15.5078783 -9.739702225 -3.006297588 2.176501259e-38
15.52832699 -9.665714264 -3.0026896 2.176501259e-38
15.59894466 -9.622862816 -3.008866549 2.176501259e-38
15.77675819 -9.558337212 -3.028232574 2.176501259e-38
15.8330698 -9.505629539 -3.031700373 2.176501259e-38
15.91436481 -9.467588425 -3.039924145 2.176501259e-38
16.00082588 -9.432197571 -3.049214602 2.176501259e-38
16.03821373 -9.367529869 -3.049133062 2.167317709e-38
16.17362785 -9.359597206 -3.067687988 2.167317709e-38
16.21512794 -9.296834946 -3.06848073 2.167317709e-38
16.25930023 -9.23554039 -3.069739819 2.167317709e-38
16.40213394 -9.229593277 -3.089650393 2.167317709e-38
16.48583603 -9.189661026 -3.098464489 2.167317709e-38
16.52118874 -9.122544289 -3.09819746 2.167317709e-38
16.77075386 -8.998138428 -3.124400377 2.167317709e-38
16.84985352 -8.953559875 -3.132422924 2.167317709e-38
16.90105247 -8.893762589 -3.135266304 2.167317709e-38
17.02917862 -8.873945236 -3.152394772 2.167317709e-38
17.0844059 -8.815605164 -3.156011343 2.167317709e-38
17.13857841 -8.756484985 -3.159487724 2.167317709e-38
17.20388985 -8.702823639 -3.16507268 2.167317709e-38
17.28162575 -8.655099869 -3.172938347 2.167317709e-38
17.3984375 -8.626275063 -3.187975407 2.167317709e-38
17.47877312 -8.578755379 -3.196382761 2.167317709e-38
17.5602932 -8.531368256 -3.204981327 2.167317709e-38
17.60064125 -8.463656425 -3.206093788 2.167317709e-38
17.87795067 -8.333053589 -3.238077879 2.15813416e-38
17.97115707 -8.288709641 -3.248865604 2.15813416e-38
18.00113869 -8.21496582 -3.248326302 2.15813416e-38
18.1884079 -8.124385834 -3.270212173 2.15813416e-38
18.25850677 -8.06780529 -3.276967764 2.15813416e-38
18.41058731 -8.046674728 -3.298406363 2.15813416e-38
18.52070045 -8.006328583 -3.312381983 2.15813416e-38
18.59277725 -7.948924065 -3.319505215 2.15813416e-38
18.64304543 -7.881895542 -3.322795153 2.15813416e-38
18.76315498 -7.843949795 -3.338577986 2.15813416e-38
18.90432739 -7.813800812 -3.358063698 2.15813416e-38
18.9573555 -7.746676922 -3.361931324 2.15813416e-38
19.07040787 -7.703526497 -3.376464844 2.15813416e-38
19.18722725 -7.661166191 -3.391676426 2.15813416e-38
19.23798943 -7.591933727 -3.395246744 2.14895061e-38
19.38807869 -7.56118536 -3.416281939 2.14895061e-38
19.45128441 -7.495914459 -3.422118425 2.14895061e-38
19.57334137 -7.452690601 -3.438265085 2.14895061e-38
19.6407032 -7.388144016 -3.444890261 2.14895061e-38
19.80413246 -7.358821869 -3.468306303 2.14895061e-38
19.87399101 -7.294007778 -3.475381613 2.14895061e-38
19.94756699 -7.230137825 -3.483119965 2.14895061e-38
20.0632515 -7.180922031 -3.498237848 2.14895061e-38
20.11285591 -7.107670784 -3.501920462 2.14895061e-38
20.30045891 -7.082302094 -3.529618979 2.14895061e-38
20.35041237 -7.008033276 -3.533324003 2.14895061e-38
20.60093498 -6.90959692 -3.5671103 2.13976706e-38
20.67047882 -6.840593815 -3.57435441 2.13976706e-38
20.79468346 -6.789074421 -3.591100216 2.13976706e-38
20.88285446 -6.725043774 -3.601586819 2.13976706e-38
21.04247093 -6.683233738 -3.624492407 2.13976706e-38
21.13530922 -6.619316578 -3.635854959 2.13976706e-38
21.27858543 -6.570353985 -3.655903339 2.13976706e-38
21.35038376 -6.498632908 -3.66373086 2.13976706e-38
21.44108963 -6.43219614 -3.674841642 2.13976706e-38
21.58463478 -6.3807621 -3.694996834 2.13976706e-38
21.73172951 -6.329396725 -3.715807676 2.13976706e-38
21.79878044 -6.253962994 -3.722947836 2.13976706e-38
21.95320129 -6.202877522 -3.745025158 2.130583511e-38
22.10187531 -6.149051189 -3.7661798 2.130583511e-38
22.19726944 -6.079561234 -3.778204679 2.130583511e-38
22.36910629 -5.933691025 -3.799193859 2.130583511e-38
22.51879311 -5.780034542 -3.816622019 2.130583511e-38
22.67942429 -5.72419548 -3.839915991 2.130583511e-38
22.74308968 -5.643087864 -3.846801758 2.130583511e-38
22.80102158 -5.463134289 -3.848982573 2.130583511e-38
22.80210304 -5.366568089 -3.845490694 2.130583511e-38
22.84011459 -5.278720856 -3.848290682 2.130583511e-38
22.80983353 -5.175205231 -3.839651823 2.130583511e-38
22.9077301 -5.100683212 -3.85264492 2.130583511e-38
22.87121391 -4.996139526 -3.843098164 2.130583511e-38
22.9110775 -4.908434391 -3.846449852 2.130583511e-38
22.98521996 -4.82776165 -3.855608225 2.130583511e-38
22.9551487 -4.725177288 -3.847346783 2.130583511e-38
22.97481918 -4.633028984 -3.847487688 2.130583511e-38
23.00219917 -4.542395592 -3.84898448 2.130583511e-38
23.04413414 -4.454514503 -3.852974415 2.130583511e-38
23.02549171 -4.354968071 -3.846898794 2.130583511e-38
23.07227707 -4.267817974 -3.851818085 2.130583511e-38
23.06373405 -4.170411587 -3.847564936 2.130583511e-38
23.03273582 -4.069271564 -3.839633226 2.130583511e-38
23.13900757 -3.992175817 -3.854641676 2.130583511e-38
23.10461426 -3.890670538 -3.846274137 2.130583511e-38
23.12159538 -3.798025608 -3.846529961 2.130583511e-38
23.1782856 -3.71170783 -3.853448868 2.130583511e-38
23.15983772 -3.613301277 -3.847933292 2.130583511e-38
23.17194939 -3.519829988 -3.847563744 2.130583511e-38
23.18342972 -3.331135035 -3.84489727 2.130583511e-38
23.22217941 -3.241466999 -3.849133253 2.130583511e-38
23.23514938 -3.148107767 -3.849155188 2.130583511e-38
23.20737076 -3.049383879 -3.842491865 2.130583511e-38
23.28383255 -2.964284182 -3.853143692 2.130583511e-38
23.28288078 -2.869073153 -3.85104847 2.130583511e-38
23.23508835 -2.76840663 -3.841269732 2.130583511e-38
23.29275513 -2.680365801 -3.848994732 2.130583511e-38
23.33475113 -2.590184927 -3.854182005 2.130583511e-38
23.27475739 -2.488884449 -3.842591047 2.130583511e-38
23.27556038 -2.394366741 -3.841100931 2.130583511e-38
23.34316444 -2.306503057 -3.850696325 2.130583511e-38
23.36213112 -2.213576317 -3.8523283 2.130583511e-38
23.37341499 -2.11990428 -3.852750778 2.130583511e-38
23.42060471 -2.029278517 -3.859153509 2.130583511e-38
23.35254669 -1.928829908 -3.84662962 2.130583511e-38
23.36283493 -1.835161805 -3.847079515 2.130583511e-38
23.35064697 -1.73976469 -3.843886852 2.130583511e-38
23.38853264 -1.648081779 -3.849004269 2.130583511e-38
23.37342262 -1.552632332 -3.845460892 2.130583511e-38
23.40283585 -1.460099101 -3.849303007 2.130583511e-38
23.42589378 -1.367028236 -3.852159977 2.130583511e-38
23.31769371 -1.266687632 -3.833497047 2.130583511e-38
23.34516144 -1.174065828 -3.837206125 2.130583511e-38
23.43769836 -1.084289551 -3.851667166 2.130583511e-38
23.43925667 -0.9899588227 -3.851239204 2.130583511e-38
23.43058777 -0.8952334523 -3.849191904 2.130583511e-38
23.43899345 -0.7068948746 -3.849516392 2.130583511e-38
23.41395569 -0.6119249463 -3.844968796 2.130583511e-38
23.94621277 -0.4332337677 -3.931675196 2.121399961e-38
24.36924362 -0.2449049354 -4.000680923 2.121399961e-38
24.43770599 -0.1473666131 -4.011788368 2.121399961e-38
24.33681488 -0.04892512038 -3.995161295 2.121399961e-38
24.3996048 0.04903179407 -4.005469322 2.121399961e-38
24.34233284 0.1467914879 -3.99613142 2.121399961e-38
24.36140442 0.2448261678 -3.99939394 2.121399961e-38
24.36128998 0.5387117267 -4.000150681 2.121399961e-38
24.33296013 0.7338393331 -3.996338606 2.121399961e-38
24.38550568 0.833563447 -4.005485535 2.121399961e-38
24.36790276 0.9310517311 -4.003178596 2.121399961e-38
24.36629677 1.029098749 -4.003560066 2.121399961e-38
24.38973618 1.226611018 -4.00890398 2.121399961e-38
24.29272079 1.417611837 -3.994701624 2.121399961e-38
24.32484055 1.517627358 -4.000953674 2.121399961e-38
24.34921265 1.617441297 -4.005998611 2.121399961e-38
24.27317619 1.808487296 -3.995751381 2.121399961e-38
24.25950623 2.00372982 -3.996026039 2.121399961e-38
24.25209427 2.199570417 -3.997586489 2.121399961e-38
24.27970886 2.30052495 -4.003633022 2.121399961e-38
24.20944405 2.392082453 -3.993596792 2.121399961e-38
24.19379044 2.488788128 -3.992635489 2.121399961e-38
24.18519592 2.684569597 -3.994651556 2.121399961e-38
24.20542717 2.884031773 -4.001691818 2.121399961e-38
24.17202377 2.978637457 -3.998118877 2.121399961e-38
24.10444069 3.06872344 -3.988947392 2.121399961e-38
24.20274162 3.180165529 -4.007297039 2.121399961e-38
24.10586548 3.266045094 -3.993397236 2.121399961e-38
24.08111572 3.361362219 -3.991505861 2.121399961e-38
24.08893204 3.461220741 -3.995074511 2.121399961e-38
24.09906006 3.660672903 -4.001504421 2.121399961e-38
24.06751633 3.754933834 -3.998744011 2.121399961e-38
24.05016327 3.851307392 -3.998397112 2.121399961e-38
24.02139664 3.945798159 -3.996219397 2.121399961e-38
24.0086422 4.042884827 -3.996769667 2.121399961e-38
23.99167061 4.139276505 -3.996680021 2.121399961e-38
23.99633217 4.438737869 -4.006088257 2.121399961e-38
23.88920212 4.51829958 -3.991200209 2.121399961e-38
23.92403793 4.624585152 -4.000097275 2.121399961e-38
23.90522003 4.820635319 -4.003301144 2.121399961e-38
23.82190132 4.903587818 -3.992615938 2.121399961e-38
23.82705879 5.004553318 -3.996820211 2.121399961e-38
23.79714394 5.198386192 -3.998683453 2.121399961e-38
23.76242065 5.29098177 -3.996389866 2.121399961e-38
23.76249123 5.391348362 -4.000015259 2.121399961e-38
23.77683449 5.495163918 -4.006114006 2.121399961e-38
23.73392105 5.686646938 -4.006458282 2.121399961e-38
23.7116642 5.782212257 -4.006594658 2.121399961e-38
23.64817429 5.867547989 -3.999819994 2.121399961e-38
23.63010025 5.964001656 -4.000784397 2.121399961e-38
23.60902977 6.059735298 -4.001308441 2.121399961e-38
23.55726051 6.14750433 -3.996688843 2.121399961e-38
23.53186035 6.24200058 -3.996604204 2.121399961e-38
23.50977325 6.337431908 -3.997148752 2.121399961e-38
23.52527428 6.443142414 -4.004162312 2.121399961e-38
23.48975563 6.53504324 -4.002551079 2.121399961e-38
23.46024704 6.628564835 -4.002034664 2.121399961e-38
23.4043808 6.714481831 -3.997075796 2.121399961e-38
23.36177826 6.804019928 -3.994436741 2.121399961e-38
23.38778305 6.913721085 -4.003602505 2.121399961e-38
23.30258369 6.990506172 -3.993794918 2.121399961e-38
23.21476173 7.168082714 -3.988489628 2.121399961e-38
23.24674606 7.280473709 -3.998983622 2.121399961e-38
23.26918602 7.390352726 -4.007923603 2.121399961e-38
23.20695114 7.473407269 -4.002347946 2.121399961e-38
23.17879677 7.567317009 -4.00270319 2.121399961e-38
23.13126945 7.654827595 -3.999777079 2.121399961e-38
23.11260033 7.751878738 -4.001907825 2.121399961e-38
23.03364754 7.82855463 -3.993653297 2.121399961e-38
23.03128433 7.931168079 -3.998737812 2.121399961e-38
22.98223686 8.017751694 -3.995784283 2.121399961e-38
23.00243378 8.128671646 -4.004946232 2.121399961e-38
22.9520607 8.214808464 -4.001895428 2.121399961e-38
22.94647598 8.317028999 -4.006717205 2.121399961e-38
22.93789864 8.418375969 -4.011091232 2.121399961e-38
22.83757019 8.48589325 -3.999482393 2.121399961e-38
22.75333023 8.558839798 -3.990725517 2.121399961e-38
22.76401329 8.667485237 -3.998677731 2.121399961e-38
22.76242065 8.771803856 -4.004559517 2.121399961e-38
22.66628265 8.839541435 -3.993862629 2.121399961e-38
22.64495468 8.936294556 -3.996403933 2.121399961e-38
22.61412621 9.029352188 -3.997335672 2.121399961e-38
22.58234978 9.12209034 -3.998168468 2.121399961e-38
22.5292263 9.312039375 -4.00189209 2.121399961e-38
22.46626663 9.49817276 -4.004145622 2.121399961e-38
22.3705864 9.563909531 -3.993908405 2.121399961e-38
22.33715248 9.762768745 -4.001823425 2.121399961e-38
22.26794434 9.839313507 -3.996476412 2.121399961e-38
22.226614 10.03540611 -4.003410816 2.121399961e-38
22.1120224 10.19847965 -3.997413874 2.121399961e-38
22.1269207 10.31342983 -4.00757122 2.121399961e-38
22.1048069 10.41147709 -4.011111259 2.121399961e-38
22.0182991 10.47912025 -4.00302887 2.121399961e-38
21.91711617 10.64788914 -4.000065327 2.121399961e-38
21.88043022 10.73901081 -4.001217842 2.121399961e-38
21.76363754 10.89969063 -3.995755196 2.121399961e-38
21.72814751 10.99136162 -3.997320175 2.121399961e-38
21.72663689 11.1005125 -4.005216599 2.121399961e-38
21.57296562 11.24165058 -3.993426323 2.121399961e-38
21.54291725 11.33634949 -3.996262074 2.121399961e-38
21.53535271 11.44315624 -4.003365993 2.121399961e-38
21.5087471 11.54012299 -4.007007599 2.121399961e-38
21.45158577 11.62074566 -4.005029202 2.121399961e-38
21.38567543 11.69645691 -4.001467228 2.121399961e-38
21.31486893 11.76929665 -3.997041464 2.121399961e-38
21.24164391 11.84057903 -3.992207527 2.121399961e-38
21.17615128 12.02820396 -3.997942448 2.121399961e-38
21.14363861 12.12242031 -4.000973225 2.121399961e-38
21.12267685 12.22352123 -4.006275654 2.121399961e-38
21.0375824 12.2874136 -3.999469757 2.121399961e-38
20.89821434 12.43245029 -3.991850615 2.121399961e-38
20.90545273 12.55078411 -4.002835274 2.121399961e-38
20.77224731 12.69910622 -3.99674964 2.121399961e-38
20.77736092 12.81727028 -4.007616997 2.121399961e-38
20.67603493 12.86980057 -3.998020887 2.121399961e-38
20.63473892 12.95947838 -4.000074387 2.121399961e-38
20.60719299 13.05798435 -4.004874706 2.121399961e-38
20.51366997 13.1145916 -3.996917248 2.121399961e-38
20.40163422 13.27523804 -3.995756865 2.121399961e-38
20.37394142 13.37407589 -4.000827789 2.121399961e-38
20.33480644 13.46567726 -4.003737926 2.121399961e-38
20.29274559 13.55548573 -4.006152153 2.121399961e-38
20.18011856 13.59790039 -3.994684219 2.121399961e-38
20.22928047 13.74959373 -4.015321732 2.121399961e-38
20.05821609 13.75145245 -3.992301941 2.121399961e-38
20.02519226 13.84754753 -3.996783733 2.121399961e-38
19.9894886 13.9419775 -4.000808716 2.121399961e-38
19.92489052 14.01633644 -3.999127626 2.121399961e-38
19.88441277 14.10766029 -4.002350807 2.121399961e-38
19.79637527 14.16520596 -3.996063471 2.121399961e-38
19.75638008 14.2569952 -3.999524117 2.121399961e-38
19.69400406 14.33273983 -3.998524904 2.121399961e-38
19.59803391 14.38375187 -3.990750551 2.121399961e-38
19.57092476 14.48525906 -3.997053623 2.121399961e-38
19.53913116 14.58367062 -4.002502918 2.121399961e-38
19.40629387 14.60638237 -3.987287998 2.121399961e-38
19.41941071 14.73888397 -4.002120495 2.121399961e-38
19.33221436 14.79554844 -3.996376276 2.121399961e-38
19.27442551 14.87459087 -3.996762276 2.121399961e-38
19.18872261 14.93189526 -3.991401672 2.121399961e-38
19.14574242 15.02245235 -3.994995832 2.121399961e-38
19.1404705 15.14298534 -4.006562233 2.121399961e-38
19.08607674 15.2250948 -4.007953167 2.121399961e-38
18.88700676 15.31639671 -3.991883516 2.121399961e-38
18.81996536 15.51449966 -4.003948689 2.121399961e-38
18.74448204 15.57923412 -4.001177788 2.121399961e-38
18.71661758 15.68371868 -4.008658409 2.121399961e-38
18.59117889 15.70626354 -3.995283842 2.121399961e-38
18.5185833 15.77295303 -3.993276358 2.121399961e-38
18.53033066 15.91195011 -4.009572029 2.121399961e-38
18.4241066 15.94983768 -4.00042963 2.121399961e-38
18.36642838 16.02952003 -4.00186491 2.121399961e-38
18.29416275 16.09644699 -4.000180244 2.121399961e-38
18.11601448 16.33153343 -4.004010677 2.121399961e-38
18.00876045 16.36655426 -3.994816065 2.121399961e-38
17.97222137 16.46575356 -4.001360416 2.121399961e-38
17.90428734 16.53634834 -4.000997543 2.121399961e-38
17.83403969 16.60484314 -4.000183105 2.121399961e-38
17.78835487 16.69628143 -4.004959583 2.121399961e-38
17.68770981 16.73608017 -3.997416735 2.121399961e-38
17.59125328 16.7793293 -3.990828753 2.121399961e-38
17.56860733 16.89315414 -4.001066208 2.121399961e-38
17.43967247 17.04113579 -4.002776146 2.121399961e-38
17.39064789 17.13040924 -4.007291794 2.121399961e-38
17.28754616 17.16633224 -3.999405146 2.121399961e-38
17.12120247 17.27674675 -3.992928743 2.121399961e-38
17.08894348 17.383461 -4.00167799 2.121399961e-38
16.99588966 17.42839432 -3.996264219 2.121399961e-38
16.95853233 17.53049469 -4.004011631 2.121399961e-38
16.87350464 17.58349037 -4.000589848 2.121399961e-38
16.81701088 17.66623878 -4.004003525 2.121399961e-38
16.70184135 17.68706894 -3.993482351 2.121399961e-38
16.65687752 17.7821312 -3.999789715 2.121399961e-38
16.5874176 17.85124588 -4.000309944 2.121399961e-38
16.46902847 17.86735725 -3.989049196 2.121399961e-38
16.40911102 17.94656754 -3.991976976 2.121399961e-38
16.37056541 18.04960251 -4.000219345 2.121399961e-38
16.27200127 18.08650208 -3.993870974 2.121399961e-38
16.21596336 18.17057419 -3.998008013 2.121399961e-38
16.14775085 18.24123955 -3.999239683 2.121399961e-38
16.07576752 18.30765724 -3.999603271 2.121399961e-38
16.00421906 18.37466049 -4.000151157 2.121399961e-38
15.93852711 18.44844437 -4.002234459 2.121399961e-38
15.83000088 18.47246742 -3.99360466 2.121399961e-38
15.79618835 18.58345604 -4.003845692 2.121399961e-38
15.69837761 18.61966133 -3.998014927 2.121399961e-38
15.62614727 18.68602753 -3.998744488 2.121399961e-38
15.53641987 18.73122406 -3.995016575 2.121399961e-38
15.48083019 18.81772232 -4.000159264 2.121399961e-38
15.39347076 18.86536598 -3.997102737 2.121399961e-38
15.31016159 18.91811752 -3.995205402 2.121399961e-38
15.27613926 19.03205299 -4.006266117 2.121399961e-38
15.1653738 19.050457 -3.997272253 2.121399961e-38
15.06810474 19.08525848 -3.991835117 2.121399961e-38
15.05036926 19.22101593 -4.007545948 2.121399961e-38
14.95231056 19.25487518 -4.002040386 2.121399961e-38
14.84897614 19.281353 -3.99510026 2.121399961e-38
14.81556034 19.39871597 -4.007045269 2.121399961e-38
14.74834824 19.47242928 -4.009996891 2.121399961e-38
14.59511089 19.43196869 -3.989545822 2.121399961e-38
14.47338772 19.43207169 -3.977592468 2.121399961e-38
14.36460781 19.44872093 -3.969146729 2.121399961e-38
14.25427341 19.46264648 -3.960264683 2.121399961e-38
14.11654949 19.43796539 -3.943665981 2.121399961e-38
13.9967165 19.4368515 -3.931988716 2.121399961e-38
13.87559986 19.43291473 -3.919877052 2.121399961e-38
13.75579739 19.42979813 -3.908060551 2.130583511e-38
13.62282848 19.4071312 -3.892456293 2.130583511e-38
13.53109169 19.4419899 -3.888504744 2.130583511e-38
13.41632843 19.4434185 -3.877975225 2.130583511e-38
13.3186655 19.46880531 -3.872329712 2.130583511e-38
13.19507885 19.45545387 -3.859091759 2.130583511e-38
13.12354851 19.5184803 -3.861091375 2.130583511e-38
13.00038242 19.50412941 -3.847886801 2.130583511e-38
12.86245918 19.63740158 -3.853655815 2.130583511e-38
12.74860477 19.63545227 -3.843181372 2.130583511e-38
12.71068382 19.75037384 -3.855645657 2.130583511e-38
12.59721947 19.74805641 -3.845278502 2.130583511e-38
12.48584938 19.7481041 -3.835483789 2.130583511e-38
12.42777061 19.8323555 -3.842104435 2.130583511e-38
12.39237595 19.9536705 -3.855929613 2.130583511e-38
12.27989197 19.95110703 -3.845859528 2.130583511e-38
12.20125294 20.00302124 -3.846381903 2.130583511e-38
12.1115551 20.03667641 -3.843463421 2.130583511e-38
12.06335449 20.13938332 -3.853832006 2.130583511e-38
11.9579277 20.14670372 -3.845997572 2.130583511e-38
11.88142967 20.20238304 -3.847481012 2.130583511e-38
11.81103611 20.26870537 -3.851039171 2.130583511e-38
11.64700699 20.36175156 -3.850801468 2.130583511e-38
11.54780388 20.37798882 -3.845061064 2.130583511e-38
11.47130203 20.43401527 -3.846903801 2.130583511e-38
11.40757465 20.51329041 -3.853160143 2.130583511e-38
11.28570271 20.48756599 -3.839778662 2.130583511e-38
11.19753647 20.52239799 -3.837832451 2.130583511e-38
11.13523579 20.60469818 -3.844828606 2.130583511e-38
11.0574522 20.65896416 -3.846625328 2.130583511e-38
10.97138214 20.69765472 -3.845585585 2.130583511e-38
10.86841583 20.70414352 -3.838645458 2.130583511e-38
10.72066402 20.82785988 -3.845477581 2.130583511e-38
10.55574417 20.91909981 -3.846526146 2.130583511e-38
10.47580814 20.96988106 -3.848090887 2.130583511e-38
10.39762592 21.02438164 -3.850387812 2.130583511e-38
