# .PCD v0.7 - Point Cloud Data file format
VERSION 0.7
FIELDS x y z rgb
SIZE 4 4 4 4
TYPE F F F F
COUNT 1 1 1 1
WIDTH 1111
HEIGHT 1
VIEWPOINT 0 0 0 1 0 0 0
POINTS 1111
DATA ascii
101.580429 -12.612618 -0.550725 0.000000
39.622505 -20.283865 2.947291 0.000000
42.346741 -15.055263 0.960968 0.000000
137.829071 34.853485 1.848414 0.000000
23.287123 -10.470484 -2.067386 0.000000
33.446827 -19.725485 2.522137 0.000000
64.350067 54.599834 -3.079336 0.000000
33.576210 -11.186926 -1.401850 0.000000
118.540512 20.425865 -1.591549 0.000000
119.117538 93.473083 3.170990 0.000000
40.868568 22.972845 -3.414946 0.000000
62.682751 -47.901501 11.772203 0.000000
118.239799 191.864487 0.532996 0.000000
12.017007 -15.621664 -1.834033 0.000000
90.667992 129.132889 4.617540 0.000000
117.774521 4.483931 -3.999999 0.000000
40.110291 -5.975391 -3.847600 0.000000
20.630173 14.071303 -4.000001 0.000000
118.786560 13.187800 -4.000000 0.000000
96.898170 108.764816 7.335754 0.000000
30.882278 -21.832064 3.057598 0.000000
128.172318 31.224789 -1.841347 0.000000
49.071114 9.757149 -2.675561 1.000000
116.031761 67.731186 5.487495 0.000000
39.734982 -20.342802 2.978582 0.000000
47.387596 -52.857834 7.051014 0.000000
16.111115 -19.983778 -0.251538 0.000000
36.820782 -13.586459 0.006564 0.000000
18.589981 -16.013327 -0.506718 0.000000
33.102753 -20.430372 3.872856 0.000000
32.901905 -14.999835 0.372883 0.000000
21.875172 -16.557640 0.069813 0.000000
123.956520 -4.127904 5.379624 0.000000
18.368793 -13.754231 -1.177777 0.000000
34.513741 -7.087506 -3.254133 0.000000
18.683983 -14.116431 -1.025322 0.000000
24.412888 -5.758228 -3.557135 0.000000
75.213585 90.915222 7.544660 0.000000
16.891447 -21.428143 0.290068 0.000000
45.411747 71.790039 -3.595447 0.000000
21.166588 -22.312178 1.299443 0.000000
24.915813 -10.662164 -1.758915 0.000000
118.287895 -8.320969 -0.822611 0.000000
122.584404 -3.188369 1.057861 0.000000
15.105129 -22.260830 0.046855 0.000000
23.342947 30.826256 -3.847600 0.000000
23.760834 -10.398359 -2.047986 0.000000
13.036572 -13.539889 -2.281096 0.000000
17.017986 -12.889358 -1.628863 0.000000
15.505892 -12.119811 -2.202547 0.000000
111.461121 56.395855 -2.750095 0.000000
140.982758 73.583641 9.071942 0.000000
89.466927 85.776978 1.898849 0.000000
35.223434 -41.278316 6.062258 0.000000
65.212341 10.244802 -3.999999 0.000000
22.683941 -10.296882 -2.169106 0.000000
88.749359 112.897598 13.241893 0.000000
16.610125 -8.373221 -3.379909 0.000000
26.466469 3.828826 -3.999999 0.000000
78.946915 91.697769 -2.146499 0.000000
55.639919 1.424400 -4.000000 0.000000
54.311668 -15.776463 1.439343 0.000000
51.283325 77.058067 -3.030225 0.000000
24.474098 8.506470 -4.000000 0.000000
118.966087 -9.388576 -0.181641 0.000000
117.077789 5.150181 -4.000000 0.000000
26.900043 25.432199 -3.345371 0.000000
75.017105 -16.309828 6.998441 0.000000
109.543968 15.888232 -3.999998 0.000000
27.235832 -15.481050 0.476400 0.000000
16.582451 10.507663 -4.000001 0.000000
70.684372 86.176384 2.114177 0.000000
90.386063 86.009308 -1.757010 0.000000
116.076332 66.362213 3.975415 0.000000
46.555779 -19.304796 2.755352 0.000000
21.000076 -1.449241 -3.847599 0.000000
88.547852 -9.916257 -1.660061 0.000000
79.897652 36.764648 -3.123804 0.000000
45.948757 23.097555 -2.684245 0.000000
29.155174 -14.452287 0.199019 0.000000
28.792427 20.100628 -1.081812 0.000000
15.198275 -9.045298 -3.292799 0.000000
16.163532 -14.378975 -1.421891 0.000000
46.723522 8.765759 -4.000000 0.000000
120.552826 55.225533 7.484387 0.000000
11.514689 -17.253317 -1.481179 0.000000
27.654444 25.451002 -3.178867 0.000000
64.039032 92.124046 -0.272901 0.000000
15.644054 -17.590687 -0.835709 0.000000
113.378189 100.746635 8.518721 0.000000
55.670391 87.722885 1.133355 0.000000
15.583905 -13.611196 -1.707474 0.000000
120.572754 58.707134 -1.202203 0.000000
55.492706 88.584053 0.885406 0.000000
23.379721 9.067376 -4.000001 0.000000
32.884861 -4.124041 -3.847601 0.000000
43.218418 -44.186558 7.070638 0.000000
25.894577 -27.321400 3.981392 0.000000
122.485641 -6.151733 3.138993 0.000000
69.165878 27.644726 -3.064087 0.000000
14.191718 -19.086170 -0.731691 0.000000
128.080048 38.611366 -2.378123 0.000000
129.114822 20.269899 -2.491210 0.000000
46.493313 1.007662 -4.000000 0.000000
105.684883 87.181915 5.492113 0.000000
16.567362 4.759263 -4.000000 0.000000
24.204477 14.115151 -3.904715 1.000000
17.012819 -16.436310 -0.829857 0.000000
74.500114 -10.585938 -1.379402 0.000000
54.600307 -18.318090 4.845703 0.000000
89.000862 29.588140 -3.035177 0.000000
20.082579 -22.170202 1.097981 0.000000
23.148077 20.565590 -3.847600 0.000000
120.552841 54.977673 2.811385 0.000000
16.540688 -17.666685 -0.671803 0.000000
87.840248 -25.254961 3.492454 0.000000
28.802082 20.086914 -2.789040 0.000000
32.099380 21.166201 -3.847600 0.000000
74.355484 -15.778986 2.286455 0.000000
18.188078 -8.429044 -3.167567 0.000000
123.972748 -3.013695 2.440320 0.000000
55.667721 -8.167046 -2.776135 0.000000
110.283562 -11.231767 -0.249823 0.000000
26.493637 -21.558640 2.165849 0.000000
105.013382 -7.852759 -2.232179 0.000000
111.464714 29.694424 -2.771384 0.000000
18.129688 -18.962856 0.051344 0.000000
27.879299 17.348238 -4.000000 0.000000
31.020016 -9.584435 -2.323796 0.000000
111.731369 -11.127340 -0.000137 0.000000
21.975344 -0.318514 -4.000000 0.000000
20.241360 -22.229540 1.130991 0.000000
72.598732 55.039921 -3.060201 0.000000
46.771473 -4.934899 -3.847600 0.000000
69.410179 -28.987038 6.804718 0.000000
73.795624 12.467358 -3.423666 1.000000
21.909622 -2.844205 -3.847600 0.000000
26.799751 12.384831 -2.957707 1.000000
19.118519 -21.131622 0.815796 0.000000
16.381840 -19.533419 -0.283267 0.000000
17.710011 -17.209734 -0.465312 0.000000
61.610245 82.179878 -3.032716 0.000000
13.467894 -22.423185 -0.262778 0.000000
24.518791 5.571901 -2.257067 1.000000
16.438742 -6.313721 -3.847600 0.000000
77.725273 39.509094 -3.061220 0.000000
119.643753 135.740005 14.056982 0.000000
20.268908 -30.624556 1.953557 0.000000
19.090460 5.759839 -4.000000 0.000000
90.917679 -12.782977 2.931871 0.000000
50.749454 -32.543468 6.522118 0.000000
71.765060 86.242851 -0.577936 0.000000
73.242775 102.093811 -2.055878 0.000000
26.884613 3.933407 -3.999999 0.000000
24.357056 -14.572660 -0.340876 0.000000
28.635202 20.238672 -0.251915 0.000000
15.517686 -6.538270 -3.847600 0.000000
29.759583 -10.544561 -1.851947 0.000000
29.999950 1.870089 -4.000000 0.000000
16.116304 3.388531 -4.000000 0.000000
28.794294 -16.642950 1.065188 0.000000
18.722029 -25.302944 1.145976 0.000000
100.673660 84.743011 -1.292632 0.000000
21.051884 -31.151978 2.143492 0.000000
120.288498 52.232883 6.238971 0.000000
18.196072 7.547971 -4.000000 0.000000
28.485205 -14.785803 0.356230 0.000000
25.599613 -15.448038 0.198338 0.000000
27.843555 -9.770016 -2.211803 0.000000
20.421623 15.088705 -4.000000 0.000000
19.777115 -17.269390 0.099952 0.000000
40.628159 -14.231877 0.368758 0.000000
19.870495 -9.188826 -2.767207 0.000000
116.668159 93.682404 6.009373 0.000000
16.443184 -9.000938 -3.159192 0.000000
56.638222 85.578690 1.108517 0.000000
54.462315 -17.326700 8.241678 0.000000
41.131901 21.672153 -3.847600 0.000000
16.631712 2.285562 -3.999999 0.000000
24.983604 -3.496055 -3.847600 0.000000
24.515297 5.574525 -2.286818 1.000000
21.841120 -25.039474 1.856810 0.000000
41.783333 -22.916813 3.932614 0.000000
77.386856 -0.346322 -3.847600 0.000000
56.816219 -15.450381 1.417643 0.000000
46.511421 -27.720119 7.973751 0.000000
16.055546 -12.036242 -2.110501 0.000000
138.161118 72.093246 2.554883 0.000000
30.161354 9.555639 -4.000000 0.000000
51.193195 -20.263258 11.378911 0.000000
72.240685 120.430443 -1.580532 0.000000
13.609221 -14.096861 -1.978697 0.000000
23.302069 -16.017776 0.045566 0.000000
74.258461 24.330595 -3.078103 0.000000
28.702883 -24.713030 3.460786 0.000000
37.058006 15.943881 -4.000000 0.000000
128.036316 69.112022 -2.176606 0.000000
104.862267 -9.877035 -1.355101 0.000000
37.707306 -15.424816 1.011549 0.000000
52.845207 -15.433964 1.150012 0.000000
102.863632 -8.273252 2.095514 0.000000
16.424210 -16.580366 -0.934037 0.000000
71.745949 49.062695 -3.179718 0.000000
49.700741 3.248890 -3.999999 0.000000
24.601135 -16.266148 0.352042 0.000000
29.272284 25.689745 -3.032867 0.000000
39.475060 -12.957124 -0.390339 0.000000
56.172108 -1.734981 0.899112 0.000000
24.436422 6.411530 -3.252300 1.000000
22.614969 -15.482376 -0.272411 0.000000
35.143562 4.730461 -4.000000 0.000000
21.901609 -12.205759 -1.520406 0.000000
37.465279 28.684429 -3.064059 0.000000
147.612991 76.213837 -0.587412 0.000000
20.652740 -9.040658 -2.769142 0.000000
80.625099 1.030791 -4.000000 0.000000
67.454414 42.024921 -3.091441 0.000000
19.942511 22.056486 -3.847600 0.000000
20.494835 16.705164 -4.000000 0.000000
19.214954 -21.861389 0.919001 0.000000
72.277634 96.153709 5.266908 0.000000
22.122158 -14.660921 -0.608348 0.000000
49.850094 -33.465450 8.840871 0.000000
20.672062 -0.762050 -3.999999 0.000000
22.537689 23.472776 -3.847600 0.000000
15.824852 -0.981766 -4.000000 0.000000
22.218937 -18.710661 0.908824 0.000000
34.621052 -13.651872 -0.253735 0.000000
16.516953 -27.472431 0.825288 0.000000
26.843645 42.440147 -2.836883 0.000000
25.078836 -0.304313 -3.978894 0.000000
35.266319 -1.009107 -3.847600 0.000000
17.799997 -21.853718 0.630705 0.000000
17.834499 -11.736899 -1.955341 0.000000
20.800684 2.349257 -4.000000 0.000000
25.044689 -10.303493 -1.876390 0.000000
73.860687 -15.215175 4.225969 0.000000
21.191078 -29.086115 2.138429 0.000000
54.392567 -11.183553 -1.156012 0.000000
94.925468 127.373138 10.788877 0.000000
23.908113 12.590398 -2.805495 1.000000
21.250099 -18.373531 0.694458 0.000000
123.864250 85.157310 12.602020 0.000000
31.320208 -0.398965 -3.847600 0.000000
99.202309 -12.339833 1.507622 0.000000
11.619020 -17.272423 -1.462700 0.000000
80.326576 -17.798178 6.183881 0.000000
15.451282 -7.475827 -3.847600 0.000000
15.816542 -4.700225 -3.847599 0.000000
63.945633 23.916237 -3.724420 0.000000
52.144508 60.189362 -3.194034 0.000000
49.430233 12.399141 -3.540298 1.000000
121.143265 -5.850241 1.197679 0.000000
45.667610 -11.025454 -1.175509 0.000000
14.357548 -9.863612 -3.174264 0.000000
24.042431 -13.968726 -0.624894 0.000000
105.320419 -17.392088 0.921150 0.000000
118.330002 73.336327 -3.028150 0.000000
55.787544 19.521408 -3.847600 0.000000
16.336365 -20.377197 -0.100624 0.000000
82.399628 -57.753357 11.075205 0.000000
64.951759 92.238579 -0.749745 0.000000
29.640875 -22.668819 3.064547 0.000000
26.843752 24.225222 -3.847600 0.000000
15.880225 -17.099993 -0.903384 0.000000
33.050529 -20.601286 4.952727 0.000000
40.932369 -19.532715 2.943658 0.000000
57.162754 -9.728738 -1.793878 0.000000
86.308060 -14.591203 7.050018 0.000000
58.772148 19.712439 -3.847600 0.000000
14.674885 -10.552552 -2.884752 0.000000
18.036245 15.466265 -4.000000 0.000000
22.821775 1.814882 -4.000000 0.000000
25.139580 6.807709 -4.000000 0.000000
121.666718 -4.774815 3.153195 0.000000
25.529150 11.471485 -4.000000 0.000000
37.294735 -2.993556 -3.847600 0.000000
17.992718 21.774574 -3.309318 0.000000
56.717003 -2.243834 -3.847600 0.000000
61.655880 -31.518923 6.779206 0.000000
22.169100 -21.505833 1.530921 0.000000
33.180634 -10.780231 -1.628532 0.000000
89.376083 131.419098 5.071834 0.000000
25.907272 -9.577147 -2.244073 0.000000
121.492760 51.766212 -1.827588 0.000000
74.983589 -14.794401 4.668410 0.000000
90.063988 92.449715 4.008781 0.000000
32.375755 23.064390 -3.371392 0.000000
15.205077 -15.186939 -1.389948 0.000000
14.139443 -14.491546 -1.737503 0.000000
65.116211 93.600487 -2.636487 0.000000
45.796356 -19.658367 2.821733 0.000000
46.023720 71.668472 -3.525078 0.000000
119.746651 56.623108 -2.392634 0.000000
17.695589 -13.177577 -1.431359 0.000000
67.880577 -29.138641 6.737302 0.000000
16.480448 4.335063 -4.000000 0.000000
64.387794 44.004036 -3.098751 0.000000
125.330360 50.444859 -1.940846 0.000000
24.421516 22.950575 3.312631 0.000000
62.767174 -46.782349 10.261666 0.000000
41.127377 -1.801046 -3.847600 0.000000
90.159050 130.800323 5.821608 0.000000
138.306122 32.703384 3.389480 0.000000
12.881105 -17.261189 -1.288874 0.000000
93.832031 127.988510 7.311306 0.000000
133.103516 123.055428 3.956616 0.000000
27.654564 -4.994273 -3.847600 0.000000
21.832926 15.482648 -3.999999 0.000000
81.705261 28.003269 -3.035227 0.000000
14.467903 -12.054094 -2.448044 0.000000
57.813053 -7.184395 -3.188424 0.000000
31.111460 -3.538369 -3.847600 0.000000
25.966864 -5.445387 -3.847600 0.000000
54.111633 24.769672 -3.035949 0.000000
19.073076 -11.263280 -2.047578 0.000000
19.145233 -9.826399 -2.578783 0.000000
143.172348 30.176662 1.151280 0.000000
19.251883 -10.150322 -2.450646 0.000000
42.111301 2.949678 -4.000000 0.000000
57.258720 87.036133 3.006657 0.000000
15.142828 -22.098068 0.018739 0.000000
22.345577 -13.379513 -1.062929 0.000000
114.017853 -27.224867 6.571367 0.000000
61.595898 -31.557991 7.344568 0.000000
27.290379 26.954243 -3.271813 0.000000
19.611240 0.304803 -4.000000 0.000000
17.235508 -24.188284 0.786117 0.000000
59.944164 -24.323339 8.644698 0.000000
45.233490 -42.964046 6.575596 0.000000
31.787439 -9.545452 -2.322300 0.000000
18.354767 1.408953 -4.000000 0.000000
39.199821 24.193943 -3.183035 0.000000
13.026395 -17.332306 -1.254013 0.000000
120.803658 53.940445 7.319767 0.000000
126.228760 54.995911 7.982716 0.000000
34.031651 -16.126549 0.862557 0.000000
87.641922 -16.229944 2.124333 0.000000
24.051874 11.050742 -4.000001 0.000000
127.551041 39.365196 -0.857622 0.000000
92.853958 -16.294748 2.423530 0.000000
21.072954 8.625076 -4.000000 0.000000
36.808605 -12.745784 -0.455533 0.000000
119.236603 136.056793 12.808586 0.000000
45.558434 -44.766975 8.068274 0.000000
86.280876 -14.257389 4.106876 0.000000
97.757500 -6.283031 -2.873281 0.000000
49.150776 -18.884800 7.702271 0.000000
13.463507 -10.814626 -3.062631 0.000000
138.536880 33.611893 1.946844 0.000000
27.805433 -14.317607 0.119918 0.000000
120.472824 53.385323 -3.007128 0.000000
88.373085 -25.601288 5.964631 0.000000
19.450867 21.865900 -3.503189 0.000000
52.261257 -33.279465 7.867395 0.000000
121.839630 84.440956 7.269427 0.000000
120.552803 56.111240 3.182471 0.000000
22.325794 10.357461 -4.000001 0.000000
50.008171 12.571526 -3.986189 1.000000
41.699932 22.642748 -3.847600 0.000000
108.628716 -9.853931 -0.741903 0.000000
127.063171 50.479923 -0.503910 0.000000
16.385260 7.614301 -4.000000 0.000000
24.462038 6.758334 -2.761074 1.000000
75.147461 -5.226780 -3.373673 0.000000
29.973570 45.240486 -3.847598 0.000000
54.621407 -13.546920 0.197069 0.000000
46.967052 -8.891557 -2.031286 0.000000
50.586250 -3.250079 -3.847600 0.000000
90.388733 132.375381 11.493786 0.000000
45.068588 -8.938375 -2.361794 0.000000
73.910011 95.118416 5.190255 0.000000
35.288422 -6.632381 -3.300096 0.000000
121.874290 84.375000 6.805310 0.000000
55.161388 -2.845581 -3.847600 0.000000
15.263701 -2.497842 -3.847600 0.000000
46.495850 -6.941694 -3.123036 0.000000
17.279434 -2.672343 -3.847600 0.000000
20.150793 21.000420 -3.847600 0.000000
23.619564 -11.957285 -1.469467 0.000000
34.419533 -13.639096 -0.275940 0.000000
15.289451 3.098855 -4.000000 0.000000
46.168877 45.778629 -3.129765 0.000000
122.769554 -4.611468 2.736215 0.000000
128.006470 27.390638 -1.865797 0.000000
148.063965 113.794800 3.172598 0.000000
49.050777 13.693155 -4.000002 0.000000
27.089186 35.794930 -3.715977 0.000000
25.247355 -12.635289 -0.943932 0.000000
99.725746 23.121382 -2.636319 0.000000
28.188734 -16.835478 1.003059 0.000000
87.838524 -11.690722 4.549725 0.000000
23.761923 -18.880192 1.153646 0.000000
26.479401 -1.946007 -3.847599 0.000000
101.935753 61.966129 -3.250397 0.000000
117.657684 94.890442 7.738166 0.000000
15.589010 4.903705 -4.000000 0.000000
128.029205 33.010460 -1.840153 0.000000
12.181641 -14.910620 -2.026429 0.000000
73.793732 5.414264 -3.541309 1.000000
67.879318 -14.143843 0.124848 0.000000
86.160538 91.187035 -1.615776 0.000000
12.739138 -16.121050 -1.542513 0.000000
78.169777 133.181351 3.104172 0.000000
24.955936 -30.671846 3.112340 0.000000
49.207932 6.946077 -3.001606 1.000000
23.784639 -14.889775 -0.311360 0.000000
20.511578 -1.753702 -3.847600 0.000000
20.729839 -12.584151 -1.456218 0.000000
78.490204 75.764214 -3.156706 0.000000
19.858212 13.230472 -4.000000 0.000000
15.697796 -20.827530 -0.164383 0.000000
138.619186 7.192563 -3.999999 0.000000
81.501152 92.462029 -1.916870 0.000000
19.748413 -9.862517 -2.524168 0.000000
24.350897 -14.206798 -0.483023 0.000000
20.907381 -18.271414 0.632812 0.000000
19.211170 -21.334866 0.870499 0.000000
28.572573 -19.257166 1.815250 0.000000
91.528847 -24.250217 3.281771 0.000000
11.621746 -16.098804 -1.766498 0.000000
88.725464 -9.177773 3.686089 0.000000
26.093391 -16.142229 0.546220 0.000000
56.531773 -12.841775 -0.076604 0.000000
16.722994 -12.584615 -1.790360 0.000000
29.756655 13.023558 -3.999999 0.000000
16.800314 -1.084835 -3.999999 0.000000
87.936760 -6.652956 -2.677087 0.000000
15.471168 5.510117 -4.000000 0.000000
43.155388 -7.655556 -3.379492 0.000000
22.562717 -23.987181 1.967949 0.000000
65.839973 102.932617 -2.334729 0.000000
46.084770 39.600731 -3.112639 0.000000
30.813227 -20.092323 2.515291 0.000000
55.053596 -16.072405 10.970646 0.000000
113.430946 66.891022 0.348107 0.000000
24.339874 -13.911085 -0.598892 0.000000
96.541046 108.786331 7.311684 0.000000
26.940023 28.258005 -3.262420 0.000000
16.139902 -15.915121 -1.110148 0.000000
35.269150 37.656300 -3.081840 0.000000
57.205914 -23.283867 6.610147 0.000000
20.720236 17.625198 -4.000000 0.000000
24.553530 23.072929 -3.847600 0.000000
15.022302 -15.895359 -1.270169 0.000000
21.788769 -17.029312 0.236878 0.000000
17.383619 -16.533575 -0.708477 0.000000
109.561195 87.582130 -0.755050 0.000000
42.278706 -17.973291 2.220629 0.000000
92.975342 -13.001885 -0.796229 0.000000
60.274483 23.317171 -3.114531 0.000000
117.464111 78.722519 5.338218 0.000000
15.710846 -10.376342 -2.719919 0.000000
26.995253 35.140686 -3.268275 0.000000
57.788105 38.800076 -3.033549 0.000000
74.621933 121.203331 -1.431970 0.000000
24.252867 -16.886137 0.534754 0.000000
35.762676 -15.309413 0.697817 0.000000
37.558842 -12.725092 -0.484103 0.000000
67.326447 115.701767 -1.917773 0.000000
15.246810 3.814263 -4.000000 0.000000
41.262753 23.528446 -3.288281 0.000000
28.495419 25.320316 -3.098227 0.000000
43.567863 57.596767 -3.190521 0.000000
13.069250 -15.731548 -1.576323 0.000000
107.334702 120.216705 1.806751 0.000000
28.330557 8.373005 -4.000000 0.000000
23.064945 23.664944 -3.847600 0.000000
87.264244 -13.937873 4.668657 0.000000
18.050989 -21.530251 0.623005 0.000000
16.349791 -0.235830 -4.000000 0.000000
74.436203 -15.630636 2.259444 0.000000
123.618126 -1.341636 1.802574 0.000000
17.824858 -17.987494 -0.255134 0.000000
32.747810 -18.353502 7.596389 0.000000
27.390863 24.541090 -3.847600 0.000000
14.048656 -18.237429 -0.925723 0.000000
39.231243 -10.576385 -1.778338 0.000000
12.743455 -15.083988 -1.849368 0.000000
72.409981 -9.671488 -1.761851 0.000000
74.359406 23.563932 -3.840212 0.000000
82.949936 3.441389 -4.000000 0.000000
13.296540 -16.727741 -1.340301 0.000000
14.631001 -23.414263 0.198274 0.000000
44.150570 31.541559 -3.033016 0.000000
34.079163 -4.039209 -3.847600 0.000000
23.366892 -13.847345 -0.781264 0.000000
120.623528 58.507595 3.178441 0.000000
134.837265 48.978493 -2.071983 0.000000
88.091759 -30.748209 4.702206 0.000000
45.375835 -28.839828 7.669446 0.000000
124.629684 -29.458761 3.409957 0.000000
22.719294 -11.615239 -1.684615 0.000000
60.394547 -46.565994 9.127923 0.000000
25.534380 -23.322186 2.574161 0.000000
97.983658 93.399681 -0.681452 0.000000
16.011253 3.389130 -4.000000 0.000000
17.569424 -14.238574 -1.188682 0.000000
28.502075 27.661657 -3.036194 0.000000
127.063171 50.400776 -1.114560 0.000000
73.832138 12.907671 -3.210822 1.000000
95.948196 98.585709 -0.470402 0.000000
22.359154 -10.501465 -2.114838 0.000000
56.916603 86.009300 1.981611 0.000000
19.195477 -25.784630 1.272100 0.000000
69.056854 91.989143 -2.624203 0.000000
27.089197 -12.834106 -0.603175 0.000000
22.735800 -12.950495 -1.195144 0.000000
24.664265 19.423887 -3.972743 0.000000
75.316513 -15.061275 4.331013 0.000000
33.186348 -20.417631 4.338637 0.000000
56.434921 -17.620371 3.225754 0.000000
18.908882 -27.590113 1.386306 0.000000
57.507114 -13.613839 5.011516 0.000000
45.267338 -12.498132 -0.411013 0.000000
17.945051 -21.206450 0.519993 0.000000
17.803127 -6.704631 -3.847600 0.000000
120.623528 55.705685 5.785789 0.000000
40.463959 12.478390 -4.000000 0.000000
38.284828 -26.923092 4.454345 0.000000
17.787762 -0.397807 -4.000000 0.000000
53.528992 -13.729240 0.229234 0.000000
56.452888 -15.520709 7.504962 0.000000
38.463284 -26.218294 4.299615 0.000000
14.718636 -22.630035 0.068641 0.000000
16.308453 -3.273522 -3.847600 0.000000
21.202610 -28.520002 2.072540 0.000000
22.734425 8.087712 -3.999999 0.000000
63.435455 2.036747 -4.000000 0.000000
67.542534 1.970738 -4.000000 0.000000
90.153236 92.461853 4.772688 0.000000
127.694519 33.366352 -0.780524 0.000000
68.198723 61.881836 -2.685359 0.000000
47.322006 -44.100296 10.185110 0.000000
17.216415 21.813063 -2.767587 0.000000
22.343161 16.555235 -4.000000 0.000000
17.427164 -14.603020 -1.142508 0.000000
40.018795 -22.433096 6.437576 0.000000
70.882805 2.344418 -3.999999 0.000000
16.827681 6.094677 -3.999999 0.000000
17.199747 -19.757814 -0.013254 0.000000
19.181618 7.598717 -3.999992 0.000000
79.869720 -20.142551 2.703772 0.000000
23.943806 13.571913 -3.715091 1.000000
115.083855 -26.538513 2.760515 0.000000
71.649597 85.670685 6.655787 0.000000
29.530518 -20.571228 2.405290 0.000000
41.995255 -9.531975 -2.379231 0.000000
97.033875 107.923424 5.219069 0.000000
23.574003 -3.769622 -3.847600 0.000000
50.230247 -20.573828 7.908741 0.000000
56.965572 -9.819988 -1.755449 0.000000
15.359376 -20.833561 -0.210371 0.000000
83.507202 30.140663 -3.035646 0.000000
35.543640 -17.824202 1.882618 0.000000
86.507980 -15.819662 4.727242 0.000000
61.659180 -17.834711 12.912915 0.000000
71.384094 -30.152681 17.169710 0.000000
70.417313 -31.466257 13.198923 0.000000
88.729576 -11.118675 5.144987 0.000000
35.454998 6.207213 -4.000000 0.000000
87.779175 -12.963441 6.908314 0.000000
92.330208 43.426769 -3.117851 0.000000
21.515879 -22.996441 1.496594 0.000000
120.937889 51.766163 -2.311058 0.000000
22.207975 -20.232435 1.387019 0.000000
25.418831 26.498827 -3.847600 0.000000
118.603653 78.924828 7.364613 0.000000
39.544437 -12.097390 -0.895019 0.000000
25.963970 -11.803943 -1.148448 0.000000
36.233677 -15.097563 0.658056 0.000000
29.456083 19.218227 -4.000000 0.000000
71.987793 96.166496 -2.354026 0.000000
26.780041 -16.315596 0.711801 0.000000
27.942232 32.272217 -3.063873 0.000000
45.002846 61.875919 -3.353565 0.000000
105.810646 -20.673401 1.582725 0.000000
39.684448 -22.362411 3.488347 0.000000
37.712856 41.389431 -3.069877 0.000000
41.854774 0.793338 -4.000000 0.000000
81.043800 116.627831 -1.089913 0.000000
17.194530 3.867153 -4.000000 0.000000
42.218662 -45.969345 6.579433 0.000000
124.352295 -5.389493 -0.563180 0.000000
34.254787 20.957315 -3.847600 0.000000
76.188728 -13.180648 3.240703 0.000000
41.926838 22.568304 -2.806713 0.000000
20.844418 9.549552 -4.000000 0.000000
32.435589 -15.093444 0.425831 0.000000
108.436867 105.645546 12.671737 0.000000
41.221054 55.474060 -3.353173 0.000000
24.800014 -14.233274 -0.399974 0.000000
15.224684 2.764616 -4.000000 0.000000
32.318066 20.581507 -3.847600 0.000000
93.988205 19.031607 -4.000000 0.000000
15.348721 -2.372419 -3.847599 0.000000
21.130547 -13.712347 -1.018146 0.000000
53.811470 23.532501 -3.724487 0.000000
17.966318 -13.347034 -1.352224 0.000000
51.789955 -63.246128 7.273193 0.000000
28.242805 -2.414668 -3.847600 0.000000
96.009972 108.292015 6.965208 0.000000
20.670441 -6.262183 -3.804635 0.000000
15.204264 -19.988073 -0.405416 0.000000
116.697250 -8.803420 -0.901858 0.000000
132.845551 23.730930 -0.906520 0.000000
60.133331 -8.962680 -2.155304 0.000000
20.524279 -12.679046 -1.434531 0.000000
23.799742 19.827084 -3.847600 0.000000
21.893049 -27.090752 2.126843 0.000000
20.543152 -24.069101 1.350642 0.000000
139.939651 35.509632 2.976305 0.000000
48.166634 -20.493845 3.469556 0.000000
32.976173 -30.616072 4.481454 0.000000
38.073502 -53.470894 5.803277 0.000000
24.373043 9.457464 -3.103275 1.000000
38.313850 53.722019 -3.044713 0.000000
124.529205 -9.343204 3.423797 0.000000
22.632637 7.955146 -4.000000 0.000000
25.835419 -12.396311 -0.940763 0.000000
77.472282 -20.020895 5.203579 0.000000
82.201180 -40.122738 8.223196 0.000000
111.937340 -3.848907 -3.114830 0.000000
50.161255 -12.720037 -0.370762 0.000000
142.567719 53.805603 3.423961 0.000000
55.919346 -12.093287 -0.540460 0.000000
14.204740 -9.753746 -3.242541 0.000000
48.944443 -11.259810 -1.119115 0.000000
40.945595 47.348942 -3.053610 0.000000
16.905516 -16.224253 -0.907434 0.000000
15.046827 -18.561796 -0.719895 0.000000
20.744617 -7.416609 -3.368830 0.000000
16.410368 -11.729218 -2.132229 0.000000
22.969896 -8.834287 -2.688094 0.000000
66.671371 110.583755 -2.075398 0.000000
23.924200 13.448541 -2.542149 1.000000
36.783306 7.096257 -4.000000 0.000000
111.040482 -8.745391 -0.930109 0.000000
59.685001 -34.275692 7.343865 0.000000
148.189148 9.565612 -4.000001 0.000000
35.547863 24.100788 -3.044776 0.000000
88.298668 113.160851 13.106323 0.000000
142.645905 52.938572 1.741359 0.000000
60.502571 -34.662933 7.569589 0.000000
13.968960 -21.378450 -0.292665 0.000000
61.317924 -34.471844 7.847478 0.000000
47.074997 20.238361 -1.548554 0.000000
67.838364 -8.563080 -2.147970 0.000000
83.347351 89.007095 -1.973799 0.000000
125.567169 -30.941950 3.887945 0.000000
20.415861 11.241846 -4.000000 0.000000
104.538635 -13.145690 -0.047733 0.000000
15.421126 -25.989367 0.483314 0.000000
26.354681 -9.518608 -2.289860 0.000000
18.940344 -4.361833 -3.847600 0.000000
62.858082 90.631302 -2.752348 0.000000
21.134453 13.863651 -4.000000 0.000000
98.970917 61.885365 -2.737931 0.000000
24.480066 9.763427 -3.999999 0.000000
85.040268 111.729561 -0.289707 0.000000
123.011406 51.766197 0.627461 0.000000
16.458004 -20.400103 -0.062880 0.000000
25.713488 -21.088482 1.960036 0.000000
40.566074 -11.714389 -1.141589 0.000000
22.024176 9.164181 -4.000000 0.000000
14.032033 -14.590128 -1.729117 0.000000
50.952820 -16.822359 9.050662 0.000000
119.033577 135.816620 12.624218 0.000000
41.442795 -11.711041 -1.100543 0.000000
80.268669 40.740269 -3.052702 0.000000
22.572832 -24.745565 2.064752 0.000000
29.888439 -13.765371 -0.143421 0.000000
100.014030 -10.147696 -1.546735 0.000000
37.589859 -4.451758 -3.847600 0.000000
108.011871 102.538292 -0.022329 0.000000
52.216366 -13.815331 0.192590 0.000000
64.067253 -46.286350 14.325437 0.000000
15.618020 -9.522184 -3.058980 0.000000
21.635000 -13.525687 -1.054471 0.000000
20.479580 -5.103088 -3.847599 0.000000
78.860466 56.187374 -3.168797 0.000000
61.800064 21.320372 -3.847599 0.000000
108.581886 118.397469 9.002823 0.000000
16.430143 -20.833862 0.029816 0.000000
23.396870 -10.069512 -2.207113 0.000000
19.198528 -17.685917 0.041740 0.000000
114.263893 -26.370203 8.442698 0.000000
21.707279 14.608067 -4.000000 0.000000
94.898460 -17.870453 0.368324 0.000000
17.160400 10.865206 -4.000000 0.000000
75.381363 -15.907351 2.915244 0.000000
18.896397 11.220057 -4.000000 0.000000
23.370659 -1.804826 -3.847600 0.000000
41.891964 -18.763918 7.592260 0.000000
58.738125 23.269665 3.443744 0.000000
17.723558 -8.072261 -3.360704 0.000000
19.343739 -21.866611 0.941876 0.000000
48.993256 8.878392 -3.116441 1.000000
38.397907 1.605267 -4.000000 0.000000
62.596554 -29.105873 8.718202 0.000000
26.193958 -11.347609 -1.339716 0.000000
133.947449 124.923561 3.339823 0.000000
62.017105 -45.603603 9.159091 0.000000
55.280510 -14.160882 0.587593 0.000000
57.354591 -3.308850 -3.847600 0.000000
66.921143 -15.371464 0.633145 0.000000
25.513651 -16.008251 0.400521 0.000000
23.272276 7.495926 -4.000001 0.000000
19.691895 -8.778535 -2.932473 0.000000
32.124119 -19.438120 2.393240 0.000000
93.413918 0.350356 -4.000001 0.000000
125.354935 24.102217 -3.847600 0.000000
32.018665 -12.470546 -0.767345 0.000000
12.913102 -18.201864 -1.091488 0.000000
17.121801 -8.827111 -3.143796 0.000000
21.933683 -29.502048 2.373133 0.000000
25.812466 -14.754965 -0.034534 0.000000
14.834626 -17.433359 -0.980939 0.000000
112.625694 102.451195 2.963793 0.000000
80.754379 19.324852 -3.962790 0.000000
18.248623 -19.590727 0.228013 0.000000
43.097530 -16.516954 6.362803 0.000000
24.584244 13.183897 -2.432906 1.000000
127.551033 40.801414 -0.028304 0.000000
36.443531 28.698797 -3.039769 0.000000
103.795242 -9.051723 2.331470 0.000000
116.238220 21.527941 -3.745572 0.000000
17.384918 2.928962 -4.000000 0.000000
123.791824 -1.505764 1.890020 0.000000
35.037460 -19.132427 2.446931 0.000000
64.925011 -5.575943 -3.294199 0.000000
25.340595 -25.066799 3.027858 0.000000
64.865044 -9.470386 -1.741527 0.000000
89.671761 -12.212918 -0.928828 0.000000
22.985197 -6.121205 -3.656222 0.000000
88.165535 -28.541946 4.322995 0.000000
15.879478 -7.832918 -3.675699 0.000000
19.435787 -24.406641 1.188690 0.000000
39.021507 -16.866121 1.881632 0.000000
19.980145 -19.270000 0.615939 0.000000
128.172333 35.065357 -3.278674 0.000000
141.078156 72.770988 7.341319 0.000000
34.624111 -7.549020 -3.038055 0.000000
19.523346 21.793314 -2.794313 0.000000
27.434145 -21.126095 2.156297 0.000000
12.518702 -15.540851 -1.751472 0.000000
49.406841 -19.354065 7.903080 0.000000
12.019761 -16.197884 -1.648675 0.000000
48.649353 6.263534 -3.210093 1.000000
24.352560 -9.318773 -2.368526 0.000000
21.779974 -24.815374 1.808796 0.000000
111.121300 101.079308 7.379717 0.000000
22.037189 -21.296558 1.461122 0.000000
19.984745 -19.514362 0.673575 0.000000
87.124626 23.446692 -3.722451 0.000000
51.502560 47.912689 -3.143461 0.000000
128.172302 29.540543 -1.492279 0.000000
103.319054 -10.660990 4.590665 0.000000
24.412287 9.941058 -2.969820 1.000000
83.521210 133.740112 5.335052 0.000000
21.221914 -8.800538 -2.819907 0.000000
22.665630 8.090988 -4.000000 0.000000
133.481125 28.472309 -0.186096 0.000000
18.061420 -10.287679 -2.480593 0.000000
79.467064 -22.957952 3.918145 0.000000
124.645660 203.729630 1.115444 0.000000
18.989807 0.061506 -4.000000 0.000000
44.027992 47.632912 -3.034710 0.000000
15.101038 -17.205683 -0.990451 0.000000
120.552834 55.653465 -3.186720 0.000000
19.127636 -18.009689 0.097567 0.000000
15.230529 -7.826195 -3.756793 0.000000
121.799492 -4.794836 3.192198 0.000000
89.573128 118.575455 11.474400 0.000000
121.143555 76.058693 -1.750380 0.000000
24.465696 6.779032 -2.730529 1.000000
53.512257 -18.639423 5.778953 0.000000
21.033775 -12.981401 -1.291656 0.000000
23.741911 12.465680 -3.320725 1.000000
50.536396 -2.328667 -3.847599 0.000000
33.664406 -7.755311 -3.132335 0.000000
124.263443 -8.793777 2.711762 0.000000
138.225952 216.573364 15.750269 0.000000
14.313321 -10.999603 -2.819582 0.000000
21.320442 -22.210918 1.334610 0.000000
124.743652 50.444870 4.221176 0.000000
34.699852 -8.886395 -2.458067 0.000000
24.794582 9.685380 -4.000000 0.000000
34.628307 38.848309 -3.035298 0.000000
18.862791 21.037041 -3.847600 0.000000
13.034019 -11.843887 -2.825464 0.000000
33.552746 -1.456459 -3.847600 0.000000
13.782875 -20.951946 -0.406106 0.000000
12.698009 -21.278362 -0.606984 0.000000
22.461775 -13.753551 -0.918746 0.000000
39.904915 -20.953844 6.147669 0.000000
56.700344 87.404282 3.028225 0.000000
22.164158 -6.513064 -3.609137 0.000000
25.394569 19.042048 -4.000000 0.000000
53.551674 -65.964005 9.141753 0.000000
66.549530 23.763414 -3.617621 0.000000
34.768185 47.467628 -3.061396 0.000000
115.371750 93.577179 2.058851 0.000000
45.847599 8.473790 -4.000000 0.000000
27.160616 -7.667631 -3.273794 0.000000
22.678894 -23.379320 1.931832 0.000000
109.185432 115.900368 2.219388 0.000000
54.330917 -10.774875 -1.391443 0.000000
92.315361 49.840225 -3.131424 0.000000
31.754065 -25.128382 3.720284 0.000000
54.391281 -16.678926 4.115458 0.000000
27.864634 23.308527 -3.847600 0.000000
24.448629 6.836031 -2.969337 1.000000
13.803564 -18.258772 -0.955549 0.000000
72.525246 71.443916 -3.449699 0.000000
41.292038 -21.034456 3.379933 0.000000
12.908905 -16.818750 -1.375731 0.000000
56.136688 -1.727256 -2.199928 0.000000
31.817617 -28.554998 4.113000 0.000000
46.097549 53.736847 -3.104994 0.000000
20.286940 -19.172577 0.675308 0.000000
29.061501 19.886564 -3.847600 0.000000
18.369549 21.749249 -3.435259 0.000000
30.570705 -9.953046 -2.141643 0.000000
27.474062 -8.161140 -3.029829 0.000000
27.098972 31.750662 -3.469046 0.000000
60.831467 -48.968220 11.959664 0.000000
140.408249 72.726814 3.485076 0.000000
15.726693 -10.469724 -2.683900 0.000000
73.474411 95.126740 7.051063 0.000000
15.666436 -11.259750 -2.443611 0.000000
28.522266 -8.680576 -2.798030 0.000000
23.402245 -8.006890 -2.967324 0.000000
26.948605 33.325840 -2.811783 0.000000
97.749786 -12.008238 2.093585 0.000000
27.126337 -20.102627 1.813840 0.000000
56.239288 31.575880 -3.036944 0.000000
21.173887 3.937351 -4.000000 0.000000
16.114017 -21.861925 0.182785 0.000000
17.999655 -26.916739 1.166962 0.000000
62.341503 -29.969381 8.025951 0.000000
102.914330 -9.305534 3.064230 0.000000
32.371155 -20.505293 6.934056 0.000000
11.711495 -15.032401 -2.089030 0.000000
38.267212 -11.770967 -1.058049 0.000000
46.464043 -6.652382 -3.277906 0.000000
66.628311 -11.954044 -0.754774 0.000000
18.474199 -16.788374 -0.358693 0.000000
17.257267 0.656642 -4.000000 0.000000
23.416849 -10.570436 -2.022610 0.000000
125.540756 199.840027 0.968023 0.000000
115.468079 94.543839 2.281739 0.000000
15.703019 -7.597386 -3.787439 0.000000
19.430172 -7.642371 -3.374250 0.000000
35.936150 47.699635 -3.047653 0.000000
14.625857 -8.526588 -3.561141 0.000000
17.855391 14.649443 -4.000000 0.000000
28.724371 -18.401098 1.585402 0.000000
12.083412 -19.792965 -0.927395 0.000000
38.170200 54.308655 -3.132492 0.000000
124.476196 51.206562 -1.567217 0.000000
20.426517 -11.717830 -1.792330 0.000000
19.510635 12.605185 -4.000000 0.000000
107.060593 -6.837965 -2.345564 0.000000
28.286394 -11.956417 -1.098076 0.000000
116.651512 69.778618 9.507689 0.000000
53.426174 -16.597483 6.374084 0.000000
23.153528 11.376184 -4.000001 0.000000
55.491089 -15.606074 8.109550 0.000000
14.698813 -13.824168 -1.830554 0.000000
120.552856 59.798306 3.873504 0.000000
73.098976 50.576164 -3.423006 0.000000
27.222315 23.185375 -3.424103 0.000000
41.548168 -2.910198 -3.847600 0.000000
16.430326 -13.225271 -1.648213 0.000000
116.775139 65.829865 6.309939 0.000000
88.666389 85.671005 -1.906585 0.000000
26.280153 -15.342408 0.267939 0.000000
57.329868 86.632126 1.788382 0.000000
12.332571 -15.469193 -1.814693 0.000000
67.073898 104.951393 -2.225005 0.000000
15.584368 -17.857830 -0.789252 0.000000
23.920374 -10.952044 -1.808506 0.000000
13.818210 -13.569778 -2.102517 0.000000
52.138374 -17.306067 4.030044 0.000000
19.933645 -20.027929 0.778496 0.000000
26.802656 -11.534999 -1.264120 0.000000
25.501245 -21.881302 2.164094 0.000000
25.577711 -19.070679 1.377417 0.000000
14.987855 -12.690068 -2.131701 0.000000
24.789673 -9.494554 -2.247855 0.000000
96.940758 108.986778 8.226556 0.000000
56.507610 -15.514411 8.363744 0.000000
107.351357 106.143227 10.253954 0.000000
23.945335 -7.435951 -3.092944 0.000000
34.285404 36.211769 -3.044771 0.000000
54.033245 -16.451900 1.803691 0.000000
15.581569 -6.536833 -3.847600 0.000000
14.819375 -13.203193 -2.003598 0.000000
23.621248 -9.803133 -2.290336 0.000000
12.417171 -14.062080 -2.247584 0.000000
22.588041 11.569562 -4.000000 0.000000
110.262283 100.800552 6.967143 0.000000
128.066391 37.255497 -0.772986 0.000000
21.025900 7.003116 -3.999999 0.000000
77.391235 -19.843510 5.225922 0.000000
25.599619 -9.142467 -2.457851 0.000000
17.584435 -9.332898 -2.893692 0.000000
71.961349 84.966461 3.621551 0.000000
23.379852 -9.158218 -2.541536 0.000000
41.235012 -8.193565 -3.216865 0.000000
17.663555 -24.105375 0.853038 0.000000
134.821640 25.025406 -3.037068 0.000000
27.600975 -1.057649 -3.847600 0.000000
50.502682 -33.210709 8.412188 0.000000
22.355246 -20.454149 1.463474 0.000000
28.636017 20.240843 -0.260588 0.000000
70.408585 -14.325413 0.162214 0.000000
88.835915 -12.084285 3.447746 0.000000
42.565022 -49.426414 6.217944 0.000000
30.705107 -9.712436 -2.265123 0.000000
29.186964 22.530455 -3.847600 0.000000
16.638617 21.777273 -2.830671 0.000000
56.204437 44.295444 -3.077082 0.000000
24.243469 -19.491680 1.371428 0.000000
65.325371 -4.928282 -3.547977 0.000000
25.681013 12.297113 -3.073113 1.000000
18.921570 -26.451824 1.285083 0.000000
26.979206 -22.170343 3.909760 0.000000
24.864361 -33.779648 3.067597 0.000000
43.499805 23.707571 -3.684140 0.000000
63.584061 -47.442318 11.761199 0.000000
26.535334 -33.112640 3.483433 0.000000
28.121302 5.316652 -4.000000 0.000000
39.140785 24.246109 -3.041357 0.000000
72.540039 95.048462 -0.626851 0.000000
21.890097 0.662053 -4.000000 0.000000
28.295822 -14.605547 0.269689 0.000000
15.747771 -8.956963 -3.260215 0.000000
16.241619 -20.755630 -0.038546 0.000000
28.180668 25.031528 -3.847600 0.000000
14.622921 -19.920856 -0.500334 0.000000
11.419634 -17.008276 -1.544699 0.000000
16.253767 -24.127560 0.609828 0.000000
29.434563 -10.782747 -1.735240 0.000000
16.555042 5.930630 -4.000000 0.000000
111.247391 -1.720908 1.290825 0.000000
24.232323 -32.203144 2.922652 0.000000
18.553709 -14.152882 -1.020236 0.000000
111.403450 100.381866 6.396680 0.000000
17.538689 0.283864 -4.000000 0.000000
91.647812 91.401466 3.964253 0.000000
73.168861 123.088791 1.450090 0.000000
34.145378 -9.068089 -2.486097 0.000000
42.561584 19.391659 -3.972998 0.000000
17.213686 -0.236782 -4.000000 0.000000
13.534503 -20.986973 -0.433584 0.000000
95.251900 -17.207417 1.452601 0.000000
49.084732 -56.516228 7.719093 0.000000
16.262463 -7.679643 -3.688177 0.000000
81.107475 -5.002785 -3.266755 0.000000
94.694939 -18.348431 1.640889 0.000000
107.291389 107.729027 11.943773 0.000000
41.124729 -11.043559 -1.519786 0.000000
20.455507 19.431065 -3.974916 0.000000
63.275539 61.900314 -2.725009 0.000000
65.401779 -14.832556 0.409721 0.000000
99.195297 106.293488 -0.162438 0.000000
26.943932 27.673553 -2.721465 0.000000
14.563817 -18.620083 -0.775350 0.000000
17.284929 -18.915037 -0.185071 0.000000
19.758154 -24.480936 1.251516 0.000000
17.813204 -12.879927 -1.532786 0.000000
52.768669 -10.963137 -1.386476 0.000000
130.974274 116.253448 1.098405 0.000000
51.126266 -19.239580 11.393383 0.000000
16.105543 -8.397115 -3.431794 0.000000
69.542259 5.190878 -4.000000 0.000000
25.001228 -14.406538 -0.300501 0.000000
66.011978 -16.310049 0.999507 0.000000
20.590963 18.418308 -4.000000 0.000000
35.673603 -1.301061 -3.847600 0.000000
58.520565 71.309113 -3.496945 0.000000
39.664585 -21.796877 5.988553 0.000000
91.018196 87.237778 -1.605078 0.000000
16.913313 -13.276024 -1.543450 0.000000
37.114826 48.696831 -3.086946 0.000000
73.886192 23.647781 -3.847600 0.000000
19.017595 -19.358313 0.379522 0.000000
56.162926 -1.716476 0.760994 0.000000
17.681046 -5.011851 -3.847600 0.000000
34.167870 28.239876 -3.054219 0.000000
39.809250 -20.920649 6.091280 0.000000
44.594883 61.824917 -3.297514 0.000000
113.076286 161.657455 1.960271 0.000000
17.974358 -28.813782 1.284754 0.000000
27.415340 -22.069546 3.237621 0.000000
19.717257 -16.571489 -0.077119 0.000000
116.127182 95.365921 7.869329 0.000000
19.470415 -10.831174 -2.181704 0.000000
24.527800 -15.223555 -0.062073 0.000000
15.663589 -5.620223 -3.847600 0.000000
71.777779 108.421539 -1.934183 0.000000
12.705074 -12.486690 -2.690474 0.000000
46.329159 21.999842 3.549313 0.000000
98.426842 -16.409531 0.236807 0.000000
56.054398 87.603928 1.384994 0.000000
116.069305 67.876198 7.178478 0.000000
20.240061 19.676973 -3.847600 0.000000
20.825916 -10.812528 -2.098188 0.000000
26.383556 5.297463 -4.000000 0.000000
14.783982 -19.241451 -0.617192 0.000000
44.057163 -11.556597 -1.045485 0.000000
65.966759 87.326645 -2.867068 0.000000
22.638279 -12.340920 -1.424296 0.000000
21.527504 7.798505 -4.000001 0.000000
16.041838 -12.885318 -1.841214 0.000000
46.199928 -26.422831 7.630200 0.000000
128.011826 8.159517 -3.999999 0.000000
42.492760 43.435463 -3.069970 0.000000
43.731979 -0.552755 -3.847600 0.000000
23.619066 -19.744886 1.384498 0.000000
81.853516 -9.540236 -1.704723 0.000000
41.432735 -8.672040 -2.927999 0.000000
46.239555 -6.668892 -3.311350 0.000000
36.670067 51.132416 -3.117599 0.000000
14.719070 -13.127620 -2.049518 0.000000
120.552834 59.369102 3.954554 0.000000
53.044113 49.453678 -3.067754 0.000000
38.473064 -13.237254 -0.204414 0.000000
22.369377 -28.649267 2.477786 0.000000
127.595146 28.981121 0.111551 0.000000
47.035690 23.595396 -3.052543 0.000000
16.747835 -3.276580 -3.847600 0.000000
16.023155 0.499222 -4.000000 0.000000
23.612865 13.021463 -2.878237 1.000000
24.669193 5.516668 -3.800783 1.000000
46.631218 -44.535950 7.894248 0.000000
25.169638 -9.002898 -2.514978 0.000000
12.534700 -18.632643 -1.055951 0.000000
74.950150 23.063978 -3.422653 0.000000
91.410278 132.702072 0.986091 0.000000
62.630890 77.533020 -3.226686 0.000000
125.761246 20.269894 -2.928221 0.000000
63.879353 -51.446655 14.408163 0.000000
13.372862 -21.092144 -0.434571 0.000000
39.632153 -18.682524 6.858891 0.000000
17.577215 -18.980181 -0.092056 0.000000
103.408676 -10.730641 7.612370 0.000000
75.128616 22.946108 -3.847599 0.000000
11.691370 -18.379372 -1.225585 0.000000
108.753838 3.653474 -4.000000 0.000000
20.241096 -19.056534 0.636286 0.000000
117.391953 78.075302 3.875309 0.000000
77.614998 16.870998 -4.000000 0.000000
33.111267 -20.445705 5.540637 0.000000
16.961309 -5.500573 -3.847600 0.000000
101.252533 -11.562357 -0.929556 0.000000
54.513805 -18.419880 6.894485 0.000000
26.994480 -22.090532 4.318170 0.000000
21.892769 -30.623974 2.355150 0.000000
56.207581 -15.595319 1.460105 0.000000
53.284580 -15.811941 4.947687 0.000000
46.044273 -16.324482 1.380901 0.000000
102.149529 40.004745 -3.165023 0.000000
23.457056 22.043079 -3.847600 0.000000
23.957514 -6.565938 -3.368296 0.000000
108.082626 -5.587625 -2.733617 0.000000
50.478889 -17.488962 7.650809 0.000000
122.942375 -5.990486 2.893678 0.000000
19.704430 13.027267 -4.000000 0.000000
15.306787 -24.768288 0.455503 0.000000
98.125977 79.065079 -2.010346 0.000000
34.249474 -20.744852 3.120680 0.000000
95.685043 -12.233303 1.782250 0.000000
118.968636 -9.255065 -0.244822 0.000000
14.319788 -14.769201 -1.609482 0.000000
126.477615 50.496758 -1.023248 0.000000
38.765499 2.447511 -4.000000 0.000000
101.071083 48.605518 -3.139764 0.000000
113.802620 -24.213781 2.192023 0.000000
40.858936 -19.448233 9.906242 0.000000
115.011795 66.488380 5.864635 0.000000
101.746452 -10.000585 -1.361224 0.000000
24.717588 13.606271 -2.447350 1.000000
92.403908 -11.686118 6.547332 0.000000
103.273170 -8.508786 3.624916 0.000000
74.462067 91.158531 5.924713 0.000000
19.997427 -20.575520 0.921919 0.000000
23.705177 -1.547321 -3.847599 0.000000
15.421543 -8.318821 -3.544611 0.000000
45.600288 48.598774 -3.133225 0.000000
73.059090 -34.342648 7.100652 0.000000
45.694775 -13.914537 0.331411 0.000000
17.222483 -26.374247 0.982479 0.000000
137.255005 12.425364 -4.000000 0.000000
18.099680 -24.621378 0.975791 0.000000
26.646708 30.115046 -3.072027 0.000000
116.098724 67.353554 7.003736 0.000000
81.334801 75.289719 -3.120852 0.000000
16.047789 -10.181780 -2.753828 0.000000
20.770510 -3.275489 -3.847600 0.000000
131.657257 50.444878 4.993423 0.000000
50.245365 -18.983959 6.680413 0.000000
27.104872 28.187151 -3.451417 0.000000
113.750092 -28.048973 4.757073 0.000000
16.017426 2.880455 -4.000000 0.000000
39.361042 35.028976 -3.076797 0.000000
14.208169 -18.768219 -0.794602 0.000000
15.243728 -10.858212 -2.663753 0.000000
16.240871 -4.396555 -3.847600 0.000000
