# .PCD v0.7 - Point Cloud Data file format
VERSION 0.7
FIELDS x y z rgb
SIZE 4 4 4 4
TYPE F F F F
COUNT 1 1 1 1
WIDTH 888
HEIGHT 1
VIEWPOINT 0 0 0 1 0 0 0
POINTS 888
DATA ascii
-10.68518257 5.679419994 -1.577851892 2.231602557e-38
-10.88956738 5.61636734 -1.597640276 2.231602557e-38
-11.02006817 5.597746372 -1.611687303 2.231602557e-38
-11.12341213 5.563994884 -1.621707201 2.231602557e-38
-11.34500885 5.500432014 -1.643988848 2.222419007e-38
-11.45974159 5.468844891 -1.655676603 2.222419007e-38
-11.55493832 5.426766872 -1.66454041 2.222419007e-38
-11.68843269 5.40154171 -1.67893362 2.222419007e-38
-11.77186966 5.351945877 -1.686113477 2.222419007e-38
-11.93957806 5.3393507 -1.705376506 2.222419007e-38
-12.04437923 5.297066212 -1.715665102 2.222419007e-38
-12.16203022 5.259327412 -1.727733374 2.222419007e-38
-12.28805733 5.134464741 -1.736405492 2.222419007e-38
-12.37692547 5.08190918 -1.744490623 2.222419007e-38
-12.36354351 4.987257481 -1.738217831 2.222419007e-38
-12.39411449 4.910727978 -1.73821795 2.222419007e-38
-12.4783392 4.76638937 -1.741627932 2.222419007e-38
-12.46663284 4.673766136 -1.73592627 2.222419007e-38
-12.53122902 4.609824657 -1.740914464 2.222419007e-38
-12.53489494 4.523396015 -1.737508416 2.222419007e-38
-12.62965393 4.207505226 -1.735679865 2.222419007e-38
-12.68529129 4.139013767 -1.739775538 2.222419007e-38
-12.74173641 3.983788252 -1.740625978 2.222419007e-38
-12.7759676 3.821681261 -1.738714933 2.222419007e-38
-12.79885769 3.742461205 -1.738641262 2.222419007e-38
-12.83121872 3.665950298 -1.739930153 2.222419007e-38
-12.8197403 3.577054262 -1.735339642 2.222419007e-38
-12.86130428 3.417738914 -1.735105753 2.222419007e-38
-12.91528606 3.346741438 -1.739566803 2.222419007e-38
-12.91849613 3.262453079 -1.737247705 2.222419007e-38
-12.97334099 3.191086531 -1.741935611 2.222419007e-38
-12.93139172 3.096079111 -1.733699322 2.222419007e-38
-12.98539734 3.024204493 -1.738396645 2.222419007e-38
-12.99655914 2.942188025 -1.737425327 2.222419007e-38
-13.01780319 2.862475634 -1.737864017 2.222419007e-38
-13.03638077 2.782213211 -1.738014817 2.222419007e-38
-12.99660969 2.689797401 -1.730462909 2.222419007e-38
-13.05115032 2.617008448 -1.735532999 2.222419007e-38
-13.23993969 2.569762707 -1.75849545 2.222419007e-38
-13.56245899 2.545508146 -1.799205303 2.213235457e-38
-13.9673233 2.532142162 -1.850799084 2.213235457e-38
-14.26122379 2.494434357 -1.887664676 2.213235457e-38
-14.25667191 2.402866125 -1.885059118 2.213235457e-38
-14.24785519 2.310856581 -1.881966949 2.213235457e-38
-14.29809284 2.228344917 -1.886744499 2.213235457e-38
-14.31721973 2.140700579 -1.887485504 2.213235457e-38
-14.31363583 2.049788237 -1.885309935 2.213235457e-38
-14.33979797 1.963082314 -1.88712132 2.213235457e-38
-14.36805248 1.87653923 -1.889275908 2.213235457e-38
-14.34932995 1.783874989 -1.885328412 2.213235457e-38
-14.35100365 1.694049716 -1.884133101 2.213235457e-38
-14.37878036 1.60721612 -1.886440158 2.213235457e-38
-14.34692097 1.513878465 -1.880993605 2.213235457e-38
-14.37142277 1.426645517 -1.883012056 2.213235457e-38
-14.38372135 1.338112831 -1.88350606 2.213235457e-38
-14.35866451 1.246271133 -1.879178524 2.213235457e-38
-14.38570118 1.158999681 -1.881743193 2.213235457e-38
-14.41931248 1.072008729 -1.885237694 2.213235457e-38
-14.40646172 0.9815111756 -1.88272512 2.213235457e-38
-14.43771362 0.8940163851 -1.886057138 2.213235457e-38
-14.41592312 0.8031738997 -1.882522821 2.213235457e-38
-14.45251274 0.6259890795 -1.886145473 2.213235457e-38
-14.43148994 0.4463866353 -1.882539153 2.213235457e-38
-14.41617489 0.1783141643 -1.879784226 2.213235457e-38
-14.44724464 0.08931618929 -1.883728385 2.213235457e-38
-13.64269829 -3.899662988e-05 -1.882674336 2.213235457e-38
-13.64274311 -0.08439175785 -1.882718682 2.213235457e-38
-13.66410923 -0.1690203846 -1.885774732 2.213235457e-38
-13.68133831 -0.2538380027 -1.888332129 2.213235457e-38
-13.68936539 -0.3387302756 -1.889691591 2.213235457e-38
-13.68539047 -0.4233135581 -1.889471769 2.213235457e-38
-13.67258358 -0.5075675249 -1.888095737 2.213235457e-38
-13.60380554 -0.5892409086 -1.879068255 2.213235457e-38
-13.68569374 -0.6776482463 -1.89092195 2.213235457e-38
-13.64565849 -0.7602582574 -1.886003733 2.213235457e-38
-13.64918995 -0.8451580405 -1.887180448 2.213235457e-38
-13.58154392 -0.9253855348 -1.878579021 2.213235457e-38
-13.63957787 -1.014051318 -1.88744247 2.213235457e-38
-13.59792042 -1.09555757 -1.882575393 2.213235457e-38
-13.5964489 -1.180138826 -1.883342028 2.213235457e-38
-13.62127876 -1.267228365 -1.887832284 2.213235457e-38
-13.60486031 -1.350560904 -1.886679769 2.213235457e-38
-13.59548473 -1.434644699 -1.886575103 2.213235457e-38
-13.5695734 -1.516746879 -1.884241104 2.213235457e-38
-13.57415104 -1.68748939 -1.887633681 2.213235457e-38
-13.50523853 -1.763848305 -1.879530787 2.213235457e-38
-13.53341103 -1.852721691 -1.885014653 2.213235457e-38
-13.51779461 -1.935806274 -1.88446784 2.213235457e-38
-13.54810905 -2.025747299 -1.890404105 2.213235457e-38
-13.49705887 -2.103542566 -1.88505733 2.213235457e-38
-13.50311756 -2.190085411 -1.887762547 2.213235457e-38
-13.52408981 -2.279402733 -1.892624736 2.213235457e-38
-13.45610428 -2.35366106 -1.885115862 2.213235457e-38
-13.41331673 -2.431707382 -1.881189346 2.213235457e-38
-13.42723846 -2.520080805 -1.885295033 2.213235457e-38
-13.3949461 -2.599850416 -1.882980943 2.213235457e-38
-13.42930984 -2.692834377 -1.890115499 2.213235457e-38
-13.37382412 -2.767861605 -1.884679675 2.213235457e-38
-13.32657146 -2.844133139 -1.880462289 2.213235457e-38
-12.95692444 -2.849118233 -1.830756903 2.222419007e-38
-12.30800533 -2.866448879 -1.743946075 2.222419007e-38
-12.25441074 -2.933940887 -1.738881588 2.222419007e-38
-12.26691723 -3.017306566 -1.743277788 2.222419007e-38
-12.25254822 -3.094270229 -1.743917823 2.222419007e-38
-12.17464828 -3.154859781 -1.7355721 2.222419007e-38
-12.18535423 -3.23811841 -1.739925742 2.222419007e-38
-12.15146923 -3.309731722 -1.737990379 2.222419007e-38
-12.13104248 -3.384889126 -1.738013506 2.222419007e-38
-12.08189869 -3.614067554 -1.740268826 2.222419007e-38
-12.04245281 -3.683546066 -1.737837076 2.222419007e-38
-12.02966881 -3.761129856 -1.739325643 2.222419007e-38
-12.00102615 -3.833797455 -1.738574862 2.222419007e-38
-11.94595623 -3.897801399 -1.734062791 2.222419007e-38
-11.93899345 -3.977342129 -1.736573219 2.222419007e-38
-11.93961048 -4.059748173 -1.740291834 2.222419007e-38
-11.87189007 -4.201235771 -1.737869501 2.222419007e-38
-11.83917999 -4.272303581 -1.736909628 2.222419007e-38
-11.77821922 -4.415723324 -1.73585391 2.222419007e-38
-11.74100399 -4.484711647 -1.734413981 2.222419007e-38
-11.74320507 -4.569044113 -1.738900661 2.222419007e-38
-11.69786835 -4.63483429 -1.736376762 2.222419007e-38
-11.70248604 -4.720608711 -1.741370916 2.222419007e-38
-11.67630768 -4.794219494 -1.74185586 2.222419007e-38
-11.62117577 -4.855818272 -1.738071918 2.222419007e-38
-11.59185791 -5.012795448 -1.742830157 2.222419007e-38
-11.53910637 -5.074898243 -1.739584684 2.222419007e-38
-11.51962185 -5.151596546 -1.741419435 2.222419007e-38
-11.44910622 -5.205287933 -1.73558867 2.222419007e-38
-11.42452431 -5.279628277 -1.736801386 2.222419007e-38
-11.44038677 -5.37303257 -1.744211197 2.222419007e-38
-11.36981869 -5.426011562 -1.738536239 2.222419007e-38
-11.32451534 -5.490561962 -1.73676312 2.222419007e-38
-11.30411816 -5.567277908 -1.738880754 2.222419007e-38
-11.27511692 -5.639941216 -1.739753962 2.222419007e-38
-11.26620579 -5.722873211 -1.74381578 2.222419007e-38
-11.17452145 -5.763479233 -1.735099912 2.222419007e-38
-11.16411781 -5.845794678 -1.739060283 2.222419007e-38
-11.10821819 -5.904345036 -1.736013651 2.222419007e-38
-11.11093807 -5.994214535 -1.742200017 2.222419007e-38
-11.05108547 -6.050498962 -1.73865521 2.222419007e-38
-11.03261566 -6.129383087 -1.741681457 2.222419007e-38
-10.96132278 -6.17875576 -1.736417055 2.222419007e-38
-10.95424461 -6.264339447 -1.741396189 2.222419007e-38
-10.93089485 -6.340994835 -1.743887186 2.222419007e-38
-10.88887215 -6.406957626 -1.743472695 2.222419007e-38
-10.82890511 -6.462086678 -1.740215778 2.222419007e-38
-10.81169891 -6.542900085 -1.743943691 2.222419007e-38
-10.77056122 -6.609344959 -1.743860006 2.222419007e-38
-10.7036171 -6.659772396 -1.739674091 2.222419007e-38
-10.66692162 -6.72877264 -1.740423441 2.222419007e-38
-10.64456749 -6.807037354 -1.743605137 2.222419007e-38
-10.61317444 -6.879801273 -1.745403409 2.222419007e-38
-10.53244686 -6.920262337 -1.739112139 2.222419007e-38
-10.5045805 -6.995443821 -1.741644859 2.222419007e-38
-10.45060921 -7.053132057 -1.739881396 2.222419007e-38
-10.4092617 -7.11933136 -1.74030602 2.222419007e-38
-10.37629318 -7.191371441 -1.742193341 2.222419007e-38
-10.35024738 -7.268442631 -1.745334029 2.222419007e-38
-10.26871395 -7.306485653 -1.73917079 2.222419007e-38
-10.19755173 -7.447426796 -1.742568135 2.222419007e-38
-10.17130184 -7.52508831 -1.745990753 2.222419007e-38
-10.10078239 -7.57009697 -1.74190557 2.222419007e-38
-10.05547237 -7.633733273 -1.74220407 2.222419007e-38
-9.953756332 -7.752441883 -1.741067052 2.222419007e-38
-9.946499825 -7.846137047 -1.74826026 2.222419007e-38
-9.900157928 -7.909352779 -1.748675466 2.222419007e-38
-9.840707779 -7.962096691 -1.746837497 2.222419007e-38
-9.768767357 -8.004304886 -1.742822289 2.222419007e-38
-9.697428703 -8.046632767 -1.738930345 2.222419007e-38
-9.673902512 -8.128680229 -1.743707418 2.222419007e-38
-9.616898537 -8.182766914 -1.74251771 2.222419007e-38
-9.581487656 -8.255289078 -1.745312333 2.222419007e-38
-5.208415985 -4.543963909 -0.9538369775 2.277520305e-38
-5.17107439 -4.567989826 -0.9521539807 2.277520305e-38
-5.092125893 -4.554608345 -0.9427850246 2.277520305e-38
-5.078299999 -4.599092484 -0.9454727173 2.277520305e-38
-5.06466341 -4.644031525 -0.9482648373 2.277520305e-38
-5.020308971 -4.660918236 -0.9455116391 2.277520305e-38
-5.083020687 -4.777955532 -0.9628384113 2.277520305e-38
-9.166399002 -8.723621368 -1.746231079 2.222419007e-38
-9.048045158 -8.826789856 -1.744346261 2.222419007e-38
-9.009490967 -8.89862442 -1.747508883 2.222419007e-38
-8.883454323 -8.993993759 -1.744513869 2.222419007e-38
-8.834946632 -9.056167603 -1.745948911 2.222419007e-38
-8.790090561 -9.122406006 -1.74820137 2.222419007e-38
-8.713626862 -9.155580521 -1.744201899 2.222419007e-38
-8.679442406 -9.233268738 -1.748738408 2.222419007e-38
-8.615706444 -9.279856682 -1.747439861 2.222419007e-38
-8.552980423 -9.327505112 -1.746412635 2.222419007e-38
-8.514601707 -9.401575089 -1.750391603 2.222419007e-38
-8.313162804 -9.528738022 -1.745048761 2.222419007e-38
-8.286921501 -9.618126869 -1.751997232 2.222419007e-38
-8.214227676 -9.6537714 -1.749210954 2.222419007e-38
-8.167063713 -9.719465256 -1.751926064 2.222419007e-38
-8.084384918 -9.7427845 -1.747081161 2.222419007e-38
-7.973419189 -9.730817795 -1.736169338 2.222419007e-38
-7.902135372 -9.7663908 -1.733744383 2.222419007e-38
-7.819940567 -9.787985802 -1.728981137 2.222419007e-38
-7.703346729 -9.765248299 -1.716509819 2.222419007e-38
-7.612538815 -9.773854256 -1.709705353 2.231602557e-38
-7.515564442 -9.77338028 -1.701455116 2.231602557e-38
-7.421827793 -9.776021957 -1.693913817 2.231602557e-38
-7.336390972 -9.788531303 -1.688193917 2.231602557e-38
-7.2313447 -9.773797035 -1.677875757 2.231602557e-38
-7.15032959 -9.790382385 -1.673126817 2.231602557e-38
-7.057896137 -9.790360451 -1.665602803 2.231602557e-38
-6.968976974 -9.794032097 -1.658926725 2.231602557e-38
-6.779433727 -9.781581879 -1.642461896 2.231602557e-38
-6.699314594 -9.794854164 -1.637700915 2.231602557e-38
-6.598635197 -9.776852608 -1.627823114 2.231602557e-38
-6.517995834 -9.787398338 -1.622832894 2.231602557e-38
-6.431591034 -9.788194656 -1.616388321 2.231602557e-38
-6.348544598 -9.793293953 -1.610697508 2.231602557e-38
-6.254816055 -9.78075695 -1.602203012 2.231602557e-38
-6.100707531 -9.804802895 -1.593692541 2.231602557e-38
-6.014710426 -9.801156998 -1.58703196 2.231602557e-38
-5.936431408 -9.80923748 -1.582326293 2.231602557e-38
-5.831268787 -9.771365166 -1.570407629 2.240786106e-38
-5.754161358 -9.779101372 -1.565884709 2.240786106e-38
-5.698141575 -9.822397232 -1.567109227 2.240786106e-38
-5.582074165 -9.760830879 -1.551795363 2.240786106e-38
-5.525878906 -9.802739143 -1.553009868 2.240786106e-38
-5.443856239 -9.798362732 -1.546957374 2.240786106e-38
-5.349707603 -9.770788193 -1.53733933 2.240786106e-38
-5.267038345 -9.762656212 -1.530908346 2.240786106e-38
-5.204566479 -9.791303635 -1.53028059 2.240786106e-38
-5.143059731 -9.821699142 -1.53003633 2.240786106e-38
-5.019472599 -9.731746674 -1.511166573 2.240786106e-38
-4.884930611 -9.765387535 -1.506894946 2.240786106e-38
-4.796652317 -9.73897171 -1.498223066 2.240786106e-38
-4.721408367 -9.737618446 -1.493503928 2.240786106e-38
-4.659927845 -9.76418972 -1.49312222 2.240786106e-38
-4.586752415 -9.765739441 -1.489014387 2.240786106e-38
-4.514256954 -9.767957687 -1.485060334 2.240786106e-38
-4.419689655 -9.720722198 -1.473691463 2.240786106e-38
-4.3571105 -9.742639542 -1.472891927 2.240786106e-38
-4.279145718 -9.729204178 -1.466838121 2.240786106e-38
-4.143425465 -9.746041298 -1.461516142 2.240786106e-38
-3.989572763 -9.716093063 -1.449547648 2.240786106e-38
-3.914758921 -9.704402924 -1.444173455 2.240786106e-38
-3.777910948 -9.709481239 -1.437874079 2.249969656e-38
-3.711426735 -9.71602726 -1.43539238 2.249969656e-38
-3.624019146 -9.666135788 -1.42467308 2.249969656e-38
-3.55939436 -9.675376892 -1.42275238 2.249969656e-38
-3.482250214 -9.649503708 -1.415730357 2.249969656e-38
-3.427015305 -9.683490753 -1.417648435 2.249969656e-38
-3.365138054 -9.698883057 -1.41684401 2.249969656e-38
-3.287525892 -9.667982101 -1.4092803 2.249969656e-38
-3.146125317 -9.641758919 -1.399685383 2.249969656e-38
-3.088746071 -9.668154716 -1.400744915 2.249969656e-38
-2.946983337 -9.63391304 -1.390363812 2.249969656e-38
-2.878041029 -9.620810509 -1.385890722 2.249969656e-38
-2.808744669 -9.60505867 -1.381097794 2.249969656e-38
-2.742064476 -9.596913338 -1.377473116 2.249969656e-38
-2.684125185 -9.618901253 -1.378216028 2.249969656e-38
-2.611928225 -9.58895874 -1.371554971 2.249969656e-38
-2.54968977 -9.594083786 -1.369992614 2.249969656e-38
-2.488348246 -9.602051735 -1.368912458 2.249969656e-38
-2.355799437 -9.576805115 -1.3610605 2.249969656e-38
-2.288746834 -9.558543205 -1.356489539 2.249969656e-38
-2.220257521 -9.532511711 -1.350782871 2.249969656e-38
-2.157122374 -9.527808189 -1.348186493 2.249969656e-38
-2.096032858 -9.531414986 -1.346848965 2.249969656e-38
-1.96819663 -9.509212494 -1.340195298 2.249969656e-38
-1.849647284 -9.528740883 -1.339593291 2.249969656e-38
-1.782825947 -9.498274803 -1.333713531 2.249969656e-38
-1.660743952 -9.493961334 -1.330174685 2.249969656e-38
-1.595293522 -9.464174271 -1.324580073 2.249969656e-38
-1.533220053 -9.452392578 -1.321538925 2.249969656e-38
-1.478283882 -9.484210968 -1.324692726 2.249969656e-38
-1.35311687 -9.448232651 -1.317229033 2.249969656e-38
-1.224907517 -9.377472878 -1.305185437 2.249969656e-38
-1.106732488 -9.374350548 -1.302702785 2.249969656e-38
-1.051127672 -9.402446747 -1.305713296 2.249969656e-38
-0.9902245998 -9.382835388 -1.302095413 2.249969656e-38
-0.9260538816 -9.326685905 -1.293533206 2.249969656e-38
-0.87081635 -9.358995438 -1.297211528 2.259153205e-38
-0.8117136359 -9.350452423 -1.295283437 2.259153205e-38
-0.7540243268 -9.356218338 -1.295444369 2.259153205e-38
-0.6943951845 -9.337968826 -1.292250752 2.259153205e-38
-0.636967957 -9.346500397 -1.292868018 2.259153205e-38
-0.5751932859 -9.287463188 -1.284169793 2.259153205e-38
-0.5175083876 -9.285324097 -1.283468366 2.259153205e-38
-0.4600605667 -9.288834572 -1.283479214 2.259153205e-38
-0.4039228857 -9.321120262 -1.287616014 2.259153205e-38
-0.3435176313 -9.249061584 -1.277357697 2.259153205e-38
-0.2865248322 -9.257092476 -1.278166413 2.259153205e-38
-0.1712568998 -9.220870972 -1.272793889 2.259153205e-38
-0.1142667308 -9.228328705 -1.273702264 2.259153205e-38
-0.05690839142 -9.173036575 -1.266010761 2.259153205e-38
-0.000195308894 -9.186198235 -1.267813802 2.259153205e-38
0.0567647256 -9.199941635 -1.269693017 2.259153205e-38
0.1131486446 -9.159255981 -1.264153957 2.259153205e-38
0.1690977067 -9.122988701 -1.259293199 2.259153205e-38
0.2253941745 -9.115426064 -1.258371115 2.259153205e-38
0.337664336 -9.09986496 -1.256723762 2.259153205e-38
0.4464964271 -9.021204948 -1.246573687 2.259153205e-38
0.5036882758 -9.043310165 -1.250012636 2.259153205e-38
0.5590404272 -9.031303406 -1.248804331 2.259153205e-38
0.6134951115 -9.006810188 -1.245946527 2.259153205e-38
0.6687123775 -8.99657917 -1.245079994 2.259153205e-38
0.7232366204 -8.978466034 -1.243116975 2.259153205e-38
0.7790695429 -8.977376938 -1.243633866 2.259153205e-38
0.832744956 -8.95280838 -1.240905046 2.259153205e-38
0.8879337907 -8.946515083 -1.240799189 2.259153205e-38
0.9405536652 -8.914763451 -1.237150908 2.259153205e-38
0.997220397 -8.922636032 -1.239058137 2.259153205e-38
1.056183219 -8.948352814 -1.243539214 2.259153205e-38
1.112127781 -8.946498871 -1.244199634 2.259153205e-38
1.165178776 -8.922620773 -1.241873622 2.259153205e-38
1.228078246 -8.971769333 -1.249746084 2.259153205e-38
1.328941822 -8.888958931 -1.240410447 2.259153205e-38
1.388912916 -8.912625313 -1.244855046 2.259153205e-38
1.442465425 -8.894377708 -1.243547559 2.259153205e-38
1.506146193 -8.93729496 -1.250810504 2.259153205e-38
1.565114975 -8.949014664 -1.253834248 2.259153205e-38
1.606207371 -8.860701561 -1.242796183 2.259153205e-38
1.67095089 -8.903846741 -1.250272274 2.259153205e-38
1.7251302 -8.888841629 -1.249634504 2.259153205e-38
1.785160899 -8.903487206 -1.253244877 2.259153205e-38
1.838984251 -8.886556625 -1.25242126 2.259153205e-38
1.999930739 -8.835049629 -1.250198364 2.259153205e-38
2.064700842 -8.866330147 -1.256378174 2.259153205e-38
2.173100471 -8.835589409 -1.255748034 2.259153205e-38
2.232903719 -8.842404366 -1.258618474 2.259153205e-38
2.275126457 -8.780652046 -1.251839399 2.259153205e-38
2.349423409 -8.841664314 -1.262571454 2.259153205e-38
2.396704674 -8.80010891 -1.258756638 2.259153205e-38
2.450802326 -8.783932686 -1.258536816 2.259153205e-38
2.524604559 -8.836971283 -1.268402934 2.259153205e-38
2.561467648 -8.760546684 -1.259643316 2.259153205e-38
2.626307011 -8.780319214 -1.264811039 2.259153205e-38
2.676740646 -8.751479149 -1.263036609 2.259153205e-38
2.744509935 -8.778437614 -1.269330144 2.259153205e-38
2.800297022 -8.766281128 -1.270046473 2.259153205e-38
2.862298012 -8.77288723 -1.27354908 2.259153205e-38
2.900080204 -8.70579052 -1.266423345 2.259153205e-38
2.965114355 -8.720643997 -1.271169782 2.259153205e-38
3.015787601 -8.692980766 -1.269859433 2.259153205e-38
3.08293891 -8.71217823 -1.275425792 2.259153205e-38
3.127997637 -8.668699265 -1.271870613 2.259153205e-38
3.201155424 -8.702392578 -1.279686451 2.259153205e-38
3.255233288 -8.683233261 -1.279850841 2.259153205e-38
3.306335688 -8.656412125 -1.278851867 2.259153205e-38
3.378192902 -8.683023453 -1.2858634 2.259153205e-38
3.416585207 -8.623497009 -1.280134439 2.259153205e-38
3.492048979 -8.657232285 -1.288307309 2.259153205e-38
3.528086185 -8.593182564 -1.282031178 2.259153205e-38
3.604206324 -8.626235962 -1.290261626 2.259153205e-38
3.648924351 -8.583602905 -1.287207365 2.259153205e-38
3.703603506 -8.564809799 -1.287807941 2.259153205e-38
3.756800413 -8.542301178 -1.287910223 2.259153205e-38
3.835994482 -8.578007698 -1.296852589 2.249969656e-38
3.958320618 -8.565686226 -1.302293897 2.249969656e-38
4.024544239 -8.569511414 -1.306622267 2.249969656e-38
4.068322182 -8.525209427 -1.303682923 2.249969656e-38
4.150359154 -8.560562134 -1.312951684 2.249969656e-38
4.199284554 -8.526756287 -1.311739206 2.249969656e-38
4.245589256 -8.487864494 -1.309743047 2.249969656e-38
4.316066742 -8.497004509 -1.315244675 2.249969656e-38
4.366805077 -8.466910362 -1.314793825 2.249969656e-38
4.419013977 -8.439499855 -1.314730763 2.249969656e-38
4.472286224 -8.414333344 -1.315110087 2.249969656e-38
4.551219463 -8.436442375 -1.322913289 2.249969656e-38
4.60647583 -8.413952827 -1.323864341 2.249969656e-38
4.670941353 -8.407865524 -1.327417254 2.249969656e-38
4.73543787 -8.401124954 -1.33096993 2.249969656e-38
4.799807549 -8.393553734 -1.334436536 2.249969656e-38
4.852423668 -8.365085602 -1.334652543 2.249969656e-38
4.925242901 -8.370880127 -1.340369463 2.249969656e-38
4.98402071 -8.35211277 -1.34230113 2.249969656e-38
5.041074753 -8.33028698 -1.343792081 2.249969656e-38
5.19166851 -8.344278336 -1.356267571 2.249969656e-38
5.230474472 -8.291871071 -1.353000879 2.249969656e-38
5.303087711 -8.29299736 -1.358478785 2.249969656e-38
5.353322506 -8.258622169 -1.358282328 2.249969656e-38
5.415052414 -8.241672516 -1.360990763 2.249969656e-38
5.48359108 -8.234520912 -1.365360975 2.249969656e-38
5.543917656 -8.214510918 -1.367709875 2.249969656e-38
5.609822273 -8.202343941 -1.371397495 2.249969656e-38
5.670086384 -8.181456566 -1.373806596 2.249969656e-38
5.810414314 -8.166397095 -1.383227468 2.249969656e-38
5.920093536 -8.106277466 -1.385315537 2.249969656e-38
5.99009037 -8.096511841 -1.389977455 2.249969656e-38
6.058928967 -8.084499359 -1.394317746 2.249969656e-38
6.112861633 -8.052313805 -1.395248532 2.249969656e-38
6.169317245 -8.023026466 -1.396751523 2.249969656e-38
6.267953396 -8.047862053 -1.407776475 2.249969656e-38
6.316133976 -8.007083893 -1.407497287 2.249969656e-38
6.386320114 -7.993911743 -1.412062764 2.249969656e-38
6.465431213 -7.991034985 -1.418605924 2.249969656e-38
6.531267643 -7.971125603 -1.422220588 2.249969656e-38
6.601017952 -7.955479145 -1.426700234 2.249969656e-38
6.63941288 -7.901706696 -1.424368501 2.249969656e-38
6.675864697 -7.846038818 -1.421776891 2.249969656e-38
6.780226231 -7.869521141 -1.433552861 2.249969656e-38
6.853088856 -7.855444908 -1.438688159 2.240786106e-38
6.9207654 -7.834570885 -1.442712545 2.240786106e-38
6.973406792 -7.796459198 -1.443608522 2.240786106e-38
7.128749371 -7.774553776 -1.455774903 2.240786106e-38
7.182679176 -7.736738682 -1.456956744 2.240786106e-38
7.281600952 -7.746603012 -1.467276096 2.240786106e-38
7.327841282 -7.699804783 -1.466920614 2.240786106e-38
7.402157784 -7.682227135 -1.472339272 2.240786106e-38
7.477849007 -7.665300369 -1.477886558 2.240786106e-38
7.5253582 -7.619183064 -1.477956772 2.240786106e-38
7.659775734 -7.565775871 -1.485861301 2.240786106e-38
7.765836239 -7.576234818 -1.497322679 2.240786106e-38
7.80460453 -7.520335197 -1.495766759 2.240786106e-38
7.892520428 -7.511547565 -1.503655672 2.240786106e-38
7.97576046 -7.497292995 -1.51070857 2.240786106e-38
8.018834114 -7.444921494 -1.510107279 2.240786106e-38
8.102424622 -7.4297719 -1.517176032 2.240786106e-38
8.171049118 -7.400184631 -1.521389961 2.240786106e-38
8.263298035 -7.391245842 -1.530054331 2.240786106e-38
8.301606178 -7.333663464 -1.528725743 2.240786106e-38
8.387271881 -7.317493916 -1.536152244 2.240786106e-38
8.495656967 -7.319968224 -1.547647119 2.240786106e-38
8.555499077 -7.279858112 -1.550348282 2.240786106e-38
8.767267227 -7.183899403 -1.564282537 2.240786106e-38
8.83730793 -7.15047121 -1.568861008 2.240786106e-38
8.907452583 -7.116477489 -1.573468566 2.231602557e-38
9.018866539 -7.114537239 -1.585355401 2.231602557e-38
9.275350571 -7.132544518 -1.614782929 2.231602557e-38
9.462008476 -7.183385372 -1.639499426 2.231602557e-38
9.818742752 -7.264586926 -1.685624361 2.231602557e-38
10.04610062 -7.337104321 -1.716863751 2.231602557e-38
10.2095232 -7.360029697 -1.736965418 2.222419007e-38
10.42059898 -7.4147048 -1.765037179 2.222419007e-38
10.62042904 -7.458416462 -1.791034937 2.222419007e-38
10.80402851 -7.487979889 -1.814038157 2.222419007e-38
10.81837463 -7.399225712 -1.808728218 2.222419007e-38
10.9784565 -7.213463783 -1.812798619 2.222419007e-38
11.08432293 -7.088359833 -1.815664291 2.222419007e-38
11.1303196 -7.021148682 -1.816046 2.222419007e-38
11.14593124 -6.934931278 -1.811552882 2.222419007e-38
11.23124981 -6.796862602 -1.811630249 2.222419007e-38
11.28100681 -6.732007027 -1.812901378 2.222419007e-38
11.32415581 -6.663072586 -1.813180327 2.222419007e-38
11.35233212 -6.585471153 -1.811130404 2.222419007e-38
11.40791988 -6.523810387 -1.813533306 2.222419007e-38
11.4847002 -6.47382164 -1.819341063 2.222419007e-38
11.49358749 -6.385480404 -1.81445837 2.222419007e-38
11.51823616 -6.3062644 -1.812155843 2.222419007e-38
11.58400536 -6.249501705 -1.816389918 2.222419007e-38
11.59882164 -6.165175915 -1.812699318 2.222419007e-38
11.62858486 -6.089086533 -1.81143105 2.222419007e-38
11.7126646 -6.041074276 -1.818673968 2.222419007e-38
11.79062176 -5.897806644 -1.819311857 2.222419007e-38
11.78922749 -5.806233883 -1.813517094 2.222419007e-38
11.84874344 -5.744814873 -1.817176461 2.222419007e-38
11.85382271 -5.656999588 -1.812560916 2.222419007e-38
11.89337254 -5.585812092 -1.813287139 2.222419007e-38
11.96814919 -5.53085804 -1.819437861 2.222419007e-38
11.99871826 -5.365886688 -1.813850522 2.222419007e-38
12.06688309 -5.307085991 -1.819167137 2.222419007e-38
12.07189178 -5.220424175 -1.81501174 2.222419007e-38
12.11546612 -5.15056181 -1.816745162 2.222419007e-38
12.13259506 -5.069500923 -1.814572573 2.222419007e-38
12.17707348 -4.999851704 -1.816573858 2.222419007e-38
12.22217178 -4.93026495 -1.818712592 2.222419007e-38
12.21579933 -4.840076923 -1.813274503 2.222419007e-38
12.28358555 -4.779252529 -1.818915725 2.222419007e-38
12.30511951 -4.700230122 -1.817771196 2.222419007e-38
12.33452034 -4.624256134 -1.817851424 2.222419007e-38
12.357131 -4.545733452 -1.817003131 2.222419007e-38
12.38844776 -4.47050333 -1.817506909 2.222419007e-38
12.44706631 -4.404843807 -1.822078228 2.222419007e-38
12.42166901 -4.309651375 -1.81442225 2.222419007e-38
12.50331402 -4.251503944 -1.822471619 2.222419007e-38
12.56157398 -4.18480587 -1.827157617 2.222419007e-38
13.61341572 -4.441879749 -1.976120591 2.213235457e-38
13.62766647 -4.353500843 -1.974246383 2.213235457e-38
13.66708183 -4.273141384 -1.976090193 2.213235457e-38
13.67900085 -4.184154987 -1.974033952 2.213235457e-38
13.72987747 -4.107032776 -1.977674484 2.213235457e-38
13.77363968 -3.935191393 -1.976813078 2.213235457e-38
13.83392143 -3.860079765 -1.981999397 2.213235457e-38
13.80397701 -3.759898663 -1.974343061 2.213235457e-38
13.85395145 -3.681546211 -1.978189588 2.213235457e-38
13.87782383 -3.59621644 -1.978395343 2.213235457e-38
13.85643291 -3.499334335 -1.972215414 2.213235457e-38
13.92851448 -3.426080227 -1.979425788 2.213235457e-38
13.94444942 -3.247571468 -1.975824714 2.213235457e-38
13.95753193 -3.159804344 -1.974874973 2.213235457e-38
13.98696899 -3.07569313 -1.976314664 2.213235457e-38
14.02468586 -2.993110418 -1.978983521 2.213235457e-38
14.03328705 -2.904367447 -1.977623224 2.213235457e-38
14.02765369 -2.812844515 -1.974343777 2.213235457e-38
14.06156731 -2.639166832 -1.974372745 2.213235457e-38
14.13313293 -2.562216997 -1.982156157 2.213235457e-38
14.08629608 -2.4638381 -1.973412275 2.213235457e-38
14.10766697 -2.377797127 -1.974312901 2.213235457e-38
14.15763283 -2.296245813 -1.979278922 2.213235457e-38
14.12648773 -2.201574326 -1.972978473 2.213235457e-38
14.18174267 -2.120472908 -1.978831172 2.213235457e-38
14.18127632 -2.030824184 -1.976974368 2.213235457e-38
14.22839165 -1.947824359 -1.981825948 2.213235457e-38
14.1981554 -1.85430491 -1.975981236 2.213235457e-38
14.22597885 -1.768543839 -1.978291154 2.213235457e-38
14.23752022 -1.68064487 -1.978409648 2.213235457e-38
14.23897076 -1.591617584 -1.977203727 2.213235457e-38
14.25172615 -1.503844023 -1.977650523 2.213235457e-38
14.24831295 -1.41444397 -1.975925922 2.213235457e-38
14.29717541 -1.240963459 -1.980418324 2.213235457e-38
14.2842207 -1.150877476 -1.977601647 2.213235457e-38
14.29454517 -1.062722921 -1.978082776 2.213235457e-38
14.29197407 -0.9737690091 -1.976859212 2.213235457e-38
14.31074524 -0.8861675858 -1.978661299 2.213235457e-38
14.29017353 -0.7961883545 -1.975098014 2.213235457e-38
14.26604462 -0.7064023614 -1.971116662 2.213235457e-38
14.32415581 -0.620467484 -1.978576422 2.213235457e-38
14.31417751 -0.5313816667 -1.976711273 2.213235457e-38
14.32877731 -0.4432046115 -1.978313684 2.213235457e-38
14.33606911 -0.3546807766 -1.978980899 2.213235457e-38
14.3219738 -0.2657130063 -1.976763844 2.213235457e-38
14.35481167 -0.1775551289 -1.981114745 2.213235457e-38
14.31759453 -0.08850173652 -1.975859761 2.213235457e-38
14.33815002 0.08870440722 -1.978693843 2.213235457e-38
14.3226099 0.2657616138 -1.976851583 2.213235457e-38
14.33408642 0.3546506763 -1.978701591 2.213235457e-38
14.31152534 0.4427075684 -1.975929022 2.213235457e-38
14.31116867 0.5312986374 -1.976289868 2.213235457e-38
14.33864117 0.6210758686 -1.980581999 2.213235457e-38
14.30751228 0.7084776163 -1.976847887 2.213235457e-38
14.32190704 0.7979753613 -1.979482651 2.213235457e-38
14.22241497 0.9690470099 -1.967235208 2.213235457e-38
14.0259409 1.042826176 -1.9409132 2.213235457e-38
13.79541492 1.111497164 -1.909927726 2.213235457e-38
13.6473732 1.184566617 -1.890409708 2.213235457e-38
13.44755554 1.251057386 -1.86376822 2.213235457e-38
13.23198891 1.313582182 -1.83498168 2.222419007e-38
13.11248302 1.383678913 -1.819565177 2.222419007e-38
13.13541317 1.46831286 -1.823970914 2.222419007e-38
13.14897823 1.552167177 -1.827156186 2.222419007e-38
13.06910706 1.62479341 -1.817418694 2.222419007e-38
13.09218693 1.874860048 -1.825150013 2.222419007e-38
13.06435871 1.953404307 -1.822914243 2.222419007e-38
13.01476097 2.02836442 -1.817711473 2.222419007e-38
13.04386806 2.115639687 -1.823568344 2.222419007e-38
13.04243279 2.198233843 -1.82523489 2.222419007e-38
12.95722961 2.349073172 -1.817237616 2.222419007e-38
12.97818661 2.435870171 -1.822258234 2.222419007e-38
12.93038177 2.509778738 -1.817691326 2.222419007e-38
12.93271637 2.593303204 -1.820234776 2.222419007e-38
12.91806126 2.673566341 -1.820468187 2.222419007e-38
12.88990688 2.75095582 -1.8188622 2.222419007e-38
12.89579964 2.835725307 -1.82213521 2.222419007e-38
12.8642025 2.912308931 -1.820182681 2.222419007e-38
12.8750782 2.998576164 -1.824305296 2.222419007e-38
12.80171013 3.065094471 -1.816564083 2.222419007e-38
12.81906796 3.153187275 -1.821753025 2.222419007e-38
12.78542042 3.228888512 -1.819776773 2.222419007e-38
12.75253391 3.304597855 -1.817970872 2.222419007e-38
12.7394352 3.469916821 -1.822088122 2.222419007e-38
12.74799252 3.557096004 -1.82641995 2.222419007e-38
12.71724224 3.633368969 -1.825199485 2.222419007e-38
12.65879822 3.701519728 -1.82006216 2.222419007e-38
12.66372871 3.788155317 -1.824100614 2.222419007e-38
12.61460686 3.858593225 -1.820431232 2.222419007e-38
12.59427929 3.937730074 -1.820980191 2.222419007e-38
12.5499754 4.009225845 -1.818118811 2.222419007e-38
12.547719 4.094212532 -1.821424723 2.222419007e-38
12.52862549 4.173862934 -1.822367311 2.222419007e-38
12.50817585 4.253143311 -1.823180437 2.222419007e-38
12.45501423 4.321236134 -1.819291472 2.222419007e-38
12.45959377 4.409318447 -1.823908448 2.222419007e-38
12.38971996 4.47098732 -1.817695975 2.222419007e-38
12.35958099 4.54668808 -1.817359924 2.222419007e-38
12.36438751 4.635467529 -1.822249174 2.222419007e-38
12.32988644 4.709711075 -1.821421862 2.222419007e-38
12.30112171 4.786128998 -1.821511507 2.222419007e-38
12.27781582 4.864703655 -1.822483182 2.222419007e-38
12.25403595 4.943167686 -1.823451757 2.222419007e-38
12.22093964 5.017900944 -1.823109984 2.222419007e-38
12.18600178 5.091808796 -1.82256341 2.222419007e-38
12.14078999 5.161345959 -1.820541859 2.222419007e-38
12.11551285 5.239345551 -1.821570992 2.222419007e-38
12.07585335 5.311058998 -1.820512533 2.222419007e-38
12.04973507 5.388774872 -1.821568012 2.222419007e-38
12.00760651 5.45932436 -1.820266366 2.222419007e-38
11.97847652 5.535664558 -1.821009994 2.222419007e-38
11.94472122 5.609961033 -1.821110845 2.222419007e-38
11.89090347 5.674769402 -1.81822145 2.222419007e-38
11.87405586 5.757139683 -1.821055532 2.222419007e-38
11.80862808 5.815842628 -1.816501975 2.222419007e-38
11.78872681 5.896941185 -1.819019318 2.222419007e-38
11.78120232 5.984486103 -1.823531032 2.222419007e-38
11.69748497 6.033234596 -1.816315174 2.222419007e-38
11.65708256 6.104014397 -1.815872431 2.222419007e-38
11.61588287 6.266701221 -1.821384788 2.222419007e-38
11.5155344 6.397686005 -1.817920566 2.222419007e-38
11.47383022 6.467731953 -1.817620754 2.222419007e-38
11.45068836 6.548262596 -1.820325494 2.222419007e-38
11.42542362 6.627945423 -1.822793841 2.222419007e-38
11.35057163 6.678705215 -1.817405343 2.222419007e-38
11.30303383 6.745211124 -1.816438556 2.222419007e-38
11.29903698 6.837929249 -1.822562933 2.222419007e-38
11.2017231 6.96973896 -1.820628762 2.222419007e-38
11.12646675 7.018707752 -1.815415263 2.222419007e-38
11.1119709 7.106049061 -1.820192933 2.222419007e-38
11.05773354 7.168067455 -1.81853044 2.222419007e-38
11.02112484 7.241538525 -1.819841981 2.222419007e-38
10.92563152 7.373866558 -1.818993807 2.222419007e-38
10.85254574 7.422652245 -1.814546704 2.222419007e-38
10.74530697 7.447245121 -1.804286718 2.222419007e-38
10.6542244 7.482056618 -1.796716094 2.222419007e-38
10.54654312 7.504379272 -1.786376357 2.222419007e-38
10.47480583 7.55126524 -1.782099009 2.222419007e-38
10.38303089 7.583151817 -1.774427056 2.222419007e-38
10.32002735 7.635444641 -1.771692157 2.222419007e-38
10.22755241 7.665289402 -1.76394558 2.222419007e-38
10.18414211 7.731582165 -1.764646292 2.222419007e-38
10.12130356 7.783085346 -1.762079716 2.222419007e-38
10.00680637 7.793912888 -1.750488162 2.222419007e-38
9.955158234 7.853111744 -1.749904156 2.222419007e-38
9.819526672 7.845115662 -1.734517694 2.222419007e-38
9.665026665 7.919497967 -1.72443378 2.222419007e-38
9.6388731 7.998206615 -1.728569031 2.222419007e-38
9.553164482 8.027341843 -1.722058654 2.222419007e-38
9.471288681 8.058976173 -1.716252685 2.231602557e-38
9.291960716 8.106679916 -1.701852083 2.231602557e-38
9.214975357 8.140454292 -1.696880341 2.231602557e-38
9.165446281 8.198125839 -1.697087288 2.231602557e-38
9.094148636 8.236240387 -1.693293571 2.231602557e-38
8.987435341 8.241328239 -1.682894945 2.231602557e-38
8.939766884 8.29990387 -1.683519602 2.231602557e-38
8.844961166 8.314338684 -1.675323606 2.231602557e-38
8.774313927 8.350785255 -1.671670198 2.231602557e-38
8.708337784 8.391208649 -1.668963194 2.231602557e-38
8.622626305 8.412036896 -1.662469506 2.231602557e-38
8.552855492 8.447816849 -1.659054637 2.231602557e-38
8.452697754 8.452854156 -1.649731636 2.231602557e-38
8.399438858 8.504134178 -1.64963758 2.231602557e-38
8.218212128 8.529110909 -1.634605169 2.231602557e-38
8.029576302 8.542330742 -1.617956758 2.231602557e-38
7.919493198 8.530261993 -1.606372595 2.231602557e-38
7.859535217 8.571405411 -1.604962111 2.231602557e-38
7.740636826 8.547259331 -1.591423988 2.231602557e-38
7.575099945 8.57532692 -1.579079747 2.240786106e-38
7.458914757 8.549832344 -1.565874577 2.240786106e-38
7.35052824 8.531451225 -1.554136753 2.240786106e-38
7.281023502 8.557250023 -1.550630331 2.240786106e-38
7.185521126 8.551584244 -1.541514158 2.240786106e-38
7.097221375 8.553408623 -1.533902645 2.240786106e-38
6.850876808 8.575341225 -1.514784098 2.240786106e-38
6.744551182 8.550148964 -1.502942443 2.240786106e-38
6.666505337 8.559566498 -1.497297406 2.240786106e-38
6.586444378 8.565525055 -1.49117589 2.240786106e-38
6.501205444 8.563739777 -1.483837128 2.240786106e-38
6.445063114 8.599756241 -1.483171225 2.240786106e-38
6.319227695 8.541344643 -1.466352701 2.240786106e-38
6.263683796 8.576728821 -1.465751529 2.240786106e-38
6.179410458 8.572106361 -1.458381057 2.240786106e-38
6.086559296 8.554409981 -1.448929191 2.240786106e-38
5.999631405 8.543507576 -1.440782428 2.240786106e-38
5.928327084 8.554046631 -1.436325073 2.240786106e-38
5.841421127 8.540955544 -1.428014278 2.249969656e-38
5.811225414 8.610687256 -1.433652759 2.249969656e-38
5.625784874 8.562336922 -1.413926482 2.249969656e-38
5.571058273 8.594497681 -1.413531899 2.249969656e-38
5.489443302 8.584379196 -1.406248689 2.249969656e-38
5.410432816 8.577184677 -1.399537444 2.249969656e-38
5.331971645 8.569852829 -1.392940521 2.249969656e-38
5.235652924 8.532247543 -1.381545663 2.249969656e-38
5.174873829 8.55134201 -1.379417896 2.249969656e-38
5.117239952 8.575407982 -1.3782022 2.249969656e-38
5.039463043 8.56493187 -1.371462226 2.249969656e-38
4.9579916 8.54710865 -1.363685966 2.249969656e-38
4.83434248 8.576625824 -1.358765125 2.249969656e-38
4.749587536 8.549365997 -1.349759936 2.249969656e-38
4.679841995 8.547948837 -1.344908834 2.249969656e-38
4.610519409 8.546302795 -1.340152144 2.249969656e-38
4.555792809 8.571327209 -1.339638829 2.249969656e-38
4.477803707 8.551783562 -1.332224607 2.249969656e-38
4.400128365 8.531489372 -1.324817777 2.249969656e-38
4.343616486 8.551145554 -1.323685527 2.249969656e-38
4.283922672 8.564455986 -1.321593046 2.249969656e-38
4.200197697 8.52854538 -1.311985731 2.249969656e-38
4.138345718 8.535822868 -1.309218168 2.249969656e-38
4.067008495 8.522530556 -1.303294539 2.249969656e-38
3.995006323 8.506567955 -1.297037959 2.249969656e-38
3.930913687 8.506485939 -1.293253303 2.259153205e-38
3.884109974 8.543495178 -1.29523921 2.259153205e-38
3.750740051 8.528654099 -1.285833478 2.259153205e-38
3.619181633 8.513659477 -1.276773453 2.259153205e-38
3.560919523 8.522689819 -1.274799824 2.259153205e-38
3.497807503 8.51908493 -1.270975828 2.259153205e-38
3.429907322 8.50317955 -1.265397429 2.259153205e-38
3.358167171 8.476036072 -1.25825429 2.259153205e-38
3.322687864 8.540409088 -1.264729381 2.259153205e-38
3.239755869 8.482040405 -1.253086448 2.259153205e-38
3.192205667 8.515264511 -1.255066395 2.259153205e-38
3.120526552 8.483246803 -1.247462511 2.259153205e-38
3.061644554 8.484761238 -1.244879007 2.259153205e-38
3.002559423 8.48494339 -1.242129207 2.259153205e-38
2.939609051 8.473407745 -1.237791896 2.259153205e-38
2.886494637 8.489487648 -1.237525225 2.259153205e-38
2.834423542 8.508627892 -1.237723351 2.259153205e-38
2.772619247 8.49793148 -1.233638763 2.259153205e-38
2.69528985 8.437630653 -1.222447634 2.259153205e-38
2.649289846 8.47396183 -1.225338101 2.259153205e-38
2.597364187 8.491971016 -1.225618482 2.259153205e-38
2.524808645 8.441082001 -1.215984821 2.259153205e-38
2.456894636 8.402809143 -1.208255291 2.259153205e-38
2.402187824 8.40852356 -1.206921577 2.259153205e-38
2.346867323 8.411480904 -1.205227613 2.259153205e-38
2.300308466 8.44604969 -1.208110809 2.259153205e-38
2.234735966 8.410028458 -1.200978994 2.259153205e-38
2.176994801 8.401854515 -1.197835922 2.259153205e-38
2.122791529 8.406272888 -1.1965487 2.259153205e-38
2.006217003 8.37979126 -1.189163804 2.259153205e-38
1.953991652 8.390690804 -1.188970327 2.259153205e-38
1.89886415 8.388554573 -1.187018633 2.259153205e-38
1.841506362 8.375365257 -1.183507085 2.259153205e-38
1.79453063 8.409397125 -1.186738372 2.259153205e-38
1.732513547 8.372023582 -1.179917216 2.259153205e-38
1.619542837 8.345019341 -1.173220396 2.259153205e-38
1.518291473 8.375617027 -1.174760103 2.259153205e-38
1.464123368 8.37136364 -1.172877431 2.259153205e-38
1.409828305 8.365611076 -1.170849085 2.259153205e-38
1.352399349 8.339542389 -1.166022897 2.259153205e-38
1.299859524 8.341384888 -1.165126085 2.259153205e-38
1.247591496 8.344861031 -1.164503455 2.259153205e-38
1.190046549 8.310862541 -1.158704162 2.259153205e-38
1.138265133 8.315688133 -1.158336759 2.268336755e-38
1.084587932 8.305297852 -1.155921817 2.268336755e-38
0.980935216 8.310858727 -1.154956698 2.268336755e-38
0.9253640175 8.279446602 -1.149754405 2.268336755e-38
0.8737313151 8.281698227 -1.149323344 2.268336755e-38
0.8224151134 8.286190987 -1.149190903 2.268336755e-38
0.7685793638 8.263485909 -1.145378709 2.268336755e-38
0.7179688811 8.273491859 -1.146114588 2.268336755e-38
0.6684194207 8.298019409 -1.148917556 2.268336755e-38
0.5614093542 8.242541313 -1.140205145 2.268336755e-38
0.510654211 8.248713493 -1.140610695 2.268336755e-38
0.4587270319 8.236278534 -1.138456464 2.268336755e-38
0.4070060551 8.222249031 -1.136124849 2.268336755e-38
0.3553400636 8.206851959 -1.133682609 2.268336755e-38
0.3044484556 8.205821991 -1.133267283 2.268336755e-38
0.25441733 8.230554581 -1.136456132 2.268336755e-38
0.2030941099 8.214157104 -1.133973718 2.268336755e-38
0.1515572518 8.174637794 -1.128400326 2.268336755e-38
0.1012652963 8.198946953 -1.131668806 2.268336755e-38
0.05046857893 8.185530663 -1.129715323 2.268336755e-38
-0.0001570225868 8.209043503 -1.132934451 2.268336755e-38
-0.1518487632 8.177129745 -1.128740072 2.268336755e-38
-0.2016627342 8.143906593 -1.124301314 2.268336755e-38
-0.2510043681 8.109068871 -1.119651079 2.268336755e-38
-0.3022125363 8.136779785 -1.123757243 2.268336755e-38
-0.3500900865 8.07941246 -1.116077065 2.268336755e-38
-0.4025060534 8.125723839 -1.122828126 2.268336755e-38
-0.4512539208 8.095982552 -1.119077921 2.268336755e-38
-0.5012692213 8.092391968 -1.119005919 2.268336755e-38
-0.5518684983 8.097672462 -1.120161653 2.268336755e-38
-0.599303782 8.058229446 -1.11523068 2.268336755e-38
-0.6471190453 8.03002739 -1.111805201 2.268336755e-38
-0.6975851059 8.035179138 -1.113131166 2.268336755e-38
-0.7992350459 8.049629211 -1.11638844 2.268336755e-38
-0.84599787 8.015631676 -1.112365246 2.268336755e-38
-0.8952550292 8.007745743 -1.112062454 2.268336755e-38
-0.9434187412 7.990834236 -1.110491276 2.268336755e-38
-0.9991419911 8.035303116 -1.117536068 2.268336755e-38
-1.04410696 7.992966175 -1.112507939 2.268336755e-38
-1.098919511 8.025938988 -1.118007779 2.268336755e-38
-1.145976782 8.001397133 -1.115558505 2.268336755e-38
-1.196452141 8.000943184 -1.116505146 2.268336755e-38
-1.245382786 7.989981174 -1.116017461 2.268336755e-38
-1.294625521 7.981217384 -1.115881205 2.268336755e-38
-1.351476789 8.017449379 -1.122142673 2.268336755e-38
-1.400470376 8.005960464 -1.121669888 2.268336755e-38
-1.450751662 8.001521111 -1.122302175 2.268336755e-38
-1.494376421 7.961071014 -1.117904067 2.268336755e-38
-1.554342508 8.007305145 -1.125713944 2.268336755e-38
-1.595512867 7.956018448 -1.119881868 2.268336755e-38
-1.64682591 7.956161022 -1.121316433 2.268336755e-38
-1.700134397 7.965408802 -1.124084234 2.268336755e-38
-1.742714047 7.924521923 -1.11982429 2.268336755e-38
-1.791856647 7.914234161 -1.119904399 2.268336755e-38
-1.843759179 7.915910721 -1.121701479 2.268336755e-38
-1.892224669 7.902470589 -1.121458173 2.268336755e-38
-1.94105947 7.890501499 -1.121452689 2.268336755e-38
-1.996918917 7.906386375 -1.125450015 2.268336755e-38
-2.044320822 7.888620853 -1.124683619 2.268336755e-38
-2.094670057 7.881747723 -1.125530124 2.268336755e-38
-2.14341712 7.868665695 -1.125534296 2.268336755e-38
-2.198246241 7.877740383 -1.128731489 2.268336755e-38
-2.24028492 7.840714455 -1.125404596 2.268336755e-38
-1.258381009 4.303227901 -0.6187132001 2.295887404e-38
-1.269308329 4.243116856 -0.6111928225 2.295887404e-38
-1.306765795 4.27196312 -0.616494596 2.295887404e-38
-2.447156429 7.826582909 -1.131713986 2.268336755e-38
-2.498912573 7.821815968 -1.133259058 2.268336755e-38
-2.542600155 7.79216671 -1.131161928 2.268336755e-38
-2.599840164 7.803556442 -1.13517952 2.268336755e-38
-2.639010668 7.760709286 -1.131270885 2.268336755e-38
-2.688001156 7.747012138 -1.131720781 2.268336755e-38
-2.735600233 7.729669094 -1.131606936 2.268336755e-38
-2.784418821 7.715664864 -1.132056952 2.268336755e-38
-2.845877409 7.735805988 -1.137567401 2.268336755e-38
-2.894679785 7.720716476 -1.137967825 2.268336755e-38
-2.939179897 7.694252491 -1.136693597 2.268336755e-38
-2.994161129 7.695148945 -1.139582992 2.268336755e-38
-3.093650579 7.668660641 -1.141257763 2.268336755e-38
-3.148648739 7.66811657 -1.14403522 2.268336755e-38
-3.251832008 7.648777962 -1.147072077 2.268336755e-38
-3.287540197 7.601609707 -1.143023014 2.268336755e-38
-3.357369184 7.633296967 -1.150853634 2.268336755e-38
-3.400414705 7.603239536 -1.14947474 2.268336755e-38
-3.49661088 7.565862179 -1.150296807 2.268336755e-38
-3.556363583 7.571845531 -1.154517055 2.268336755e-38
-3.595108747 7.532938004 -1.151955724 2.268336755e-38
-3.661677361 7.552041054 -1.158288121 2.268336755e-38
-3.707602978 7.527746201 -1.158107638 2.268336755e-38
-3.768314362 7.533125401 -1.162445188 2.259153205e-38
-3.816492796 7.512924671 -1.162965775 2.259153205e-38
-3.866915226 7.496982098 -1.164186597 2.259153205e-38
-3.912766695 7.472147942 -1.164063692 2.259153205e-38
-3.960444212 7.450779915 -1.164489269 2.259153205e-38
-4.01520443 7.442240715 -1.167050838 2.259153205e-38
-4.069056511 7.431823254 -1.169350147 2.259153205e-38
-4.122647285 7.420328617 -1.171512961 2.259153205e-38
-4.176645279 7.40922308 -1.173796415 2.259153205e-38
-4.239106655 7.412456036 -1.178493619 2.259153205e-38
-4.291509628 7.397584438 -1.180296659 2.259153205e-38
-4.331877708 7.361787319 -1.178843737 2.259153205e-38
-4.392412186 7.360180855 -1.18291378 2.259153205e-38
-4.4599576 7.369485378 -1.188815594 2.259153205e-38
-4.510948658 7.350675106 -1.190240622 2.259153205e-38
-4.546858311 7.307413578 -1.187775016 2.259153205e-38
-4.606835365 7.30270195 -1.191601038 2.259153205e-38
-4.686713696 7.32856369 -1.200534344 2.259153205e-38
-4.704214096 7.256724834 -1.193495512 2.259153205e-38
-4.771781445 7.262243271 -1.199222565 2.259153205e-38
-4.828128338 7.249848843 -1.202118635 2.259153205e-38
-4.88515377 7.23797226 -1.205152035 2.259153205e-38
-4.941100597 7.224159718 -1.207864761 2.259153205e-38
-4.974784851 7.177645683 -1.205275536 2.259153205e-38
-5.049553871 7.190181255 -1.212579012 2.259153205e-38
-5.088486195 7.151268482 -1.21126318 2.259153205e-38
-5.231503487 7.163002491 -1.224132776 2.259153205e-38
-5.298840523 7.161811352 -1.229498982 2.259153205e-38
-5.322611809 7.101631165 -1.224798918 2.259153205e-38
-5.391065598 7.10109663 -1.230426908 2.259153205e-38
-5.432498932 7.064465523 -1.229906321 2.259153205e-38
-5.509782791 7.073985577 -1.237450838 2.259153205e-38
-5.567328453 7.057367802 -1.240554214 2.259153205e-38
-5.627545834 7.043702126 -1.244260192 2.259153205e-38
-5.745381355 7.011553764 -1.251054287 2.259153205e-38
-5.812120914 7.004199505 -1.256116509 2.259153205e-38
-5.84477663 6.955547333 -1.253817677 2.259153205e-38
-5.922260284 6.959980488 -1.261219501 2.259153205e-38
-5.987351894 6.948889256 -1.265896797 2.259153205e-38
-6.020610809 6.900808811 -1.26386261 2.259153205e-38
-6.11447525 6.921559811 -1.274579287 2.259153205e-38
-6.154086113 6.88010931 -1.273937225 2.259153205e-38
-6.197161674 6.84257412 -1.274026513 2.259153205e-38
-6.288582325 6.857833385 -1.284136891 2.259153205e-38
-6.33303833 6.821177959 -1.284561872 2.259153205e-38
-6.463920116 6.791800499 -1.293932676 2.259153205e-38
-6.530941486 6.777703762 -1.298957229 2.249969656e-38
-6.601563454 6.766729832 -1.304677963 2.249969656e-38
-6.628195763 6.710516453 -1.301678658 2.249969656e-38
-6.717258453 6.71706295 -1.311047912 2.249969656e-38
-6.797437191 6.71372509 -1.318496943 2.249969656e-38
-6.825613976 6.658554554 -1.315977573 2.249969656e-38
-6.900685787 6.649085045 -1.322523594 2.249969656e-38
-7.037622452 6.615140915 -1.332943797 2.249969656e-38
-7.118408203 6.608575344 -1.340511203 2.249969656e-38
-7.159127235 6.564514637 -1.340516806 2.249969656e-38
-7.21687603 6.535683632 -1.343717217 2.249969656e-38
-7.305518627 6.534282684 -1.352657557 2.249969656e-38
-7.385224819 6.523818016 -1.359929085 2.249969656e-38
-7.486037254 6.449738503 -1.363697648 2.249969656e-38
-7.563537121 6.435500145 -1.370535731 2.249969656e-38
-7.642668247 6.421732426 -1.377655983 2.249969656e-38
-7.74753046 6.428551197 -1.38936162 2.249969656e-38
-7.785255909 6.379019737 -1.389037609 2.249969656e-38
-7.843048573 6.345683098 -1.39231801 2.249969656e-38
-7.95753479 6.357339382 -1.405629873 2.249969656e-38
-8.011206627 6.319382191 -1.408170104 2.249969656e-38
-8.087731361 6.299015999 -1.414773226 2.249969656e-38
-8.142995834 6.261539936 -1.417642832 2.249969656e-38
-8.222158432 6.241855145 -1.42466104 2.249969656e-38
-8.306129456 6.225097179 -1.432498574 2.249969656e-38
-8.350862503 6.178300381 -1.433611035 2.240786106e-38
-8.547584534 6.161700726 -1.454147458 2.240786106e-38
-8.683074951 6.097635746 -1.464293599 2.240786106e-38
