# .PCD v0.7 - Point Cloud Data file format
VERSION 0.7
FIELDS x y z rgb
SIZE 4 4 4 4
TYPE F F F F
COUNT 1 1 1 1
WIDTH 1243
HEIGHT 1
VIEWPOINT 0 0 0 1 0 0 0
POINTS 1243
DATA ascii
19.158308 5.279801 -1.842197 0.000000
9.700771 9.076415 -1.059914 0.000000
66.494568 -1.411565 -0.011642 0.000000
33.745384 -7.925548 0.005701 0.000000
12.654620 9.201599 -0.408480 0.000000
17.660618 -16.979916 -0.358828 0.000000
13.731322 10.711706 0.680260 0.000000
9.361139 -3.309696 -1.896741 0.000000
61.671791 10.807981 0.407233 0.000000
24.953413 9.374822 5.849456 0.000000
8.242892 10.355981 -0.600701 0.000000
9.345594 -11.047321 -0.769799 0.000000
16.275042 7.965163 -0.624375 0.000000
27.268026 -1.311981 -1.867203 0.000000
49.694782 -0.365003 -1.926100 0.000000
138.550140 -165.630219 11.687757 0.000000
72.793617 -2.901412 0.524400 0.000000
13.645891 10.355750 0.456598 0.000000
9.675100 9.761467 -0.666509 0.000000
8.438651 -9.837605 -1.017616 0.000000
73.929237 -24.050642 -0.630479 0.000000
11.035546 11.115860 0.387522 0.000000
8.410369 -13.779895 -0.028162 0.000000
124.649376 -72.950989 0.901861 0.000000
18.935230 6.518498 -1.251844 0.000000
13.255944 9.199441 -0.291870 0.000000
65.362350 0.000012 0.047970 0.000000
25.775267 8.817347 -0.419192 0.000000
11.497879 12.459323 0.938414 0.000000
55.681499 -29.645864 -0.743211 0.000000
12.021589 14.323368 1.482243 0.000000
9.619026 14.521738 1.226208 0.000000
16.020020 8.825214 -0.075053 0.000000
28.602163 5.358323 6.471048 0.000000
136.832596 76.798882 17.463280 0.000000
87.177292 -28.819353 1.513467 0.000000
83.565254 10.868456 6.986834 0.000000
10.811448 9.581043 -0.548987 0.000000
57.899567 -10.734141 0.997534 0.000000
14.233848 15.756384 2.024848 0.000000
67.836067 -1.033479 0.221774 0.000000
55.919132 -12.622963 2.269707 0.000000
8.524470 -4.031813 -1.801072 0.000000
122.568100 -47.030865 7.286644 0.000000
13.406288 7.924561 -1.031976 0.000000
7.538557 -6.753118 -1.647422 0.000000
10.865677 9.083172 -0.827844 0.000000
29.012360 -8.622087 -1.955018 0.000000
10.105787 8.551832 -1.285609 0.000000
64.934875 -0.080845 -0.018767 0.000000
17.059170 -5.665526 -1.980537 0.000000
11.657316 9.146719 -0.635806 0.000000
10.032640 11.785224 0.578558 0.000000
61.595665 18.871979 -0.660813 0.000000
8.787444 11.570394 0.212494 0.000000
80.258720 -9.581692 6.042037 0.000000
44.532471 -2.728799 -2.075375 0.000000
29.512453 7.079640 7.515324 0.000000
84.447708 40.684460 3.935538 0.000000
15.158925 2.056919 -1.829021 0.000000
58.778622 -11.168106 8.469505 0.000000
7.727393 -6.245108 -1.750494 0.000000
8.300041 -8.628788 -1.264238 0.000000
97.002068 40.140892 3.603014 0.000000
54.944817 29.331738 5.297701 0.000000
31.060982 4.801435 3.575422 0.000000
16.500143 17.877707 3.095421 0.000000
8.183246 -0.408765 -1.957440 0.000000
9.900213 -3.787040 -1.806418 0.000000
10.451520 0.684325 -1.965508 0.000000
63.583958 -4.875899 -1.196262 0.000000
64.327896 0.213012 -0.055335 0.000000
112.057129 -110.592514 -0.616265 0.000000
12.203381 -15.499403 0.122321 0.000000
99.863998 -124.300568 6.102561 0.000000
10.055103 -2.656787 -1.961164 0.000000
52.761120 -4.519011 -2.101016 0.000000
51.325829 -18.729765 -2.077615 0.000000
33.519039 1.296317 -1.889331 0.000000
69.513824 -0.686726 0.494904 0.000000
9.172812 6.865281 -1.805135 0.000000
9.690100 -12.846148 -0.297231 0.000000
64.720345 -0.000012 -0.032836 0.000000
138.479111 -97.153358 0.997012 0.000000
9.380268 11.127073 0.070335 0.000000
9.922326 10.308467 -0.299943 0.000000
8.371237 11.805986 0.268349 0.000000
17.549723 3.854778 -1.837033 0.000000
63.632885 0.704777 -0.071427 0.000000
9.057837 0.999873 -1.961005 0.000000
7.513745 9.298491 -1.262542 0.000000
55.651608 1.332280 -1.541639 0.000000
8.610375 2.096274 -1.959538 0.000000
105.742271 -33.713383 0.447818 0.000000
16.386627 7.451388 -0.957812 0.000000
29.982552 6.216469 7.578686 0.000000
138.502258 77.547813 18.152317 0.000000
136.951736 79.040428 17.866236 0.000000
15.277021 2.909301 -1.829470 0.000000
84.182121 -7.519979 0.730839 0.000000
77.690613 21.535017 4.590654 0.000000
9.415327 -1.507393 -1.960480 0.000000
61.914291 -0.997737 -0.666214 0.000000
55.692860 2.254357 -0.969028 0.000000
64.133545 -7.597182 -1.423727 0.000000
8.883272 -6.010124 -1.798001 0.000000
118.293579 -79.876549 2.554534 0.000000
102.109306 72.240791 13.072168 0.000000
9.776143 -4.598782 -1.804451 0.000000
120.040222 75.856064 16.903572 0.000000
67.709740 -2.746490 -0.049939 0.000000
55.774517 15.789233 -0.736928 0.000000
11.751334 7.872873 -1.357656 0.000000
30.822805 -6.026510 -1.874282 0.000000
65.062355 2.626112 0.565418 0.000000
60.025211 -9.401095 0.263849 0.000000
22.882439 -4.862513 -2.001498 0.000000
29.370144 8.149081 1.946315 0.000000
28.394053 8.880425 -1.872597 0.000000
8.782746 8.822600 -1.387238 0.000000
14.675045 7.609380 -1.077582 0.000000
11.987077 -19.182610 1.092733 0.000000
15.178626 11.066573 1.054353 0.000000
69.435303 -28.002283 -1.460114 0.000000
12.629872 -18.435627 0.789368 0.000000
136.559937 -65.170097 3.099461 0.000000
11.554188 -4.162345 -1.811545 0.000000
8.812724 11.848423 0.379264 0.000000
110.370522 56.542332 18.864494 0.000000
11.966299 -12.261234 -0.511534 0.000000
59.216984 4.444100 -1.021054 0.000000
126.425064 -98.896912 6.134062 0.000000
101.270760 -125.569069 11.187406 0.000000
33.746548 -7.774523 -0.696013 0.000000
61.016582 3.038962 -0.408135 0.000000
11.151135 -6.498509 -1.805454 0.000000
11.537012 11.460636 0.686193 0.000000
8.715926 3.585557 -1.806865 0.000000
62.307072 2.224983 0.025028 0.000000
56.868790 -31.504728 -1.919971 0.000000
8.742406 -10.588820 -0.864044 0.000000
12.300326 7.490279 -1.472966 0.000000
46.392868 -20.853619 -2.056313 0.000000
7.286342 -10.911168 -0.789997 0.000000
107.928413 -1.022382 10.980295 0.000000
29.963982 2.091557 -1.877953 0.000000
17.842436 -1.483028 -1.988403 0.000000
11.397334 6.115091 -1.814463 0.000000
15.685296 -18.721491 0.621065 0.000000
6.711852 11.429596 -0.274638 0.000000
114.518867 -40.392117 7.332504 0.000000
8.915330 -12.300283 -0.435028 0.000000
66.554131 0.929322 0.408229 0.000000
15.408613 10.237845 0.733510 0.000000
33.652401 10.836452 1.308771 0.000000
15.247319 -2.736869 -1.978526 0.000000
72.553230 2.031488 2.918282 0.000000
7.225413 10.605238 -0.654374 0.000000
21.176062 4.352614 -1.849175 0.000000
13.561329 2.756655 -1.823727 0.000000
12.761148 1.454823 -1.825951 0.000000
18.122250 -3.954894 -1.986657 0.000000
7.286185 -10.778703 -0.825839 0.000000
64.239082 9.095599 1.012896 0.000000
26.699356 -11.740033 -2.003540 0.000000
15.829004 18.044250 3.120646 0.000000
24.288874 7.451357 1.607440 0.000000
27.131348 7.231891 2.458377 0.000000
7.121925 -11.678513 -0.580226 0.000000
41.178448 -18.032671 -2.043126 0.000000
24.984533 -5.940059 -2.007162 0.000000
14.584048 6.641798 -1.745442 0.000000
15.666907 -4.167894 -1.978067 0.000000
63.359520 11.868232 1.211920 0.000000
8.978209 -11.222169 -0.727393 0.000000
71.980194 -19.516350 -0.453958 0.000000
12.398814 13.245556 1.254784 0.000000
10.452750 8.836168 -1.052336 0.000000
11.250905 -4.940545 -1.809067 0.000000
70.196915 29.892706 0.169850 0.000000
135.753418 -110.119682 1.703879 0.000000
9.420170 10.946142 -0.027146 0.000000
10.731236 -4.857856 -1.807370 0.000000
8.256011 -9.528855 -1.080810 0.000000
9.829198 -14.299027 0.021757 0.000000
13.466046 -7.511578 -1.811815 0.000000
80.726944 14.943565 3.504025 0.000000
7.410583 -10.081026 -0.969126 0.000000
11.115293 -0.128813 -1.967281 0.000000
8.452922 -12.747174 -0.308201 0.000000
21.199665 -8.897732 -1.836959 0.000000
95.082962 -1.338287 1.664008 0.000000
9.153523 11.052977 -0.017105 0.000000
55.690571 5.589238 -0.974203 0.000000
6.959541 11.316259 -0.292313 0.000000
14.877644 3.653539 -1.828047 0.000000
64.671379 0.553758 0.047969 0.000000
17.094246 3.050655 -1.835545 0.000000
24.439516 -8.402761 -2.001582 0.000000
13.949892 -18.388391 0.659937 0.000000
11.005869 8.632274 -1.062494 0.000000
10.854499 9.314352 -0.695630 0.000000
67.754959 29.869040 -0.301300 0.000000
53.431637 9.089932 -2.024358 0.000000
10.668213 -11.272374 -0.722232 0.000000
63.326218 2.192260 0.213624 0.000000
138.469116 -164.737991 10.168762 0.000000
10.062326 8.083519 -1.566359 0.000000
12.831032 8.051720 -1.042017 0.000000
129.126846 -80.584908 6.594546 0.000000
9.618790 1.326370 -1.962925 0.000000
109.900536 -27.489277 7.359931 0.000000
10.290627 -8.584481 -1.326077 0.000000
18.090557 -4.169178 -1.986269 0.000000
80.636856 -0.962896 8.354620 0.000000
65.281212 -4.769026 -0.671504 0.000000
7.573291 10.230618 -0.804499 0.000000
64.979416 0.022439 0.001917 0.000000
11.924189 -1.368385 -1.968951 0.000000
39.813778 -30.988523 -2.008383 0.000000
13.496485 -18.748453 0.818432 0.000000
85.083809 41.575554 0.897801 0.000000
67.621788 -21.641424 -1.609236 0.000000
10.941462 -11.100217 -0.756945 0.000000
8.069812 1.289363 -1.957771 0.000000
61.196602 4.699274 -0.406581 0.000000
118.969070 99.290321 24.540539 0.000000
55.830112 8.108945 -0.925303 0.000000
17.766550 2.896982 -1.837782 0.000000
18.607414 16.377676 2.470939 0.000000
122.145172 -54.097553 10.503281 0.000000
8.658270 8.894765 -1.369632 0.000000
10.006489 11.491227 0.404660 0.000000
25.917690 6.082273 3.954846 0.000000
11.538589 10.695798 0.241639 0.000000
140.059982 -116.474869 17.740215 0.000000
28.452745 6.735291 3.860247 0.000000
13.680886 7.048648 -1.589447 0.000000
15.077339 8.433764 -0.465351 0.000000
61.256783 7.727146 -0.314910 0.000000
76.116745 -36.628136 -1.360177 0.000000
104.115776 14.461336 8.743064 0.000000
25.703930 8.903578 -0.925546 0.000000
30.276943 3.930225 4.105618 0.000000
81.660767 -5.434135 3.645761 0.000000
16.368282 -0.294995 -1.984453 0.000000
66.545723 -3.212574 -0.272991 0.000000
83.842438 17.896120 2.920863 0.000000
49.966808 -1.536169 -0.770445 0.000000
7.605404 8.708292 -1.506581 0.000000
8.907853 10.392111 -0.449690 0.000000
119.411041 -49.284203 15.435899 0.000000
57.359280 -12.751682 0.528200 0.000000
35.328060 1.350051 -1.895310 0.000000
8.499822 11.709974 0.237569 0.000000
94.039757 -27.759464 5.834371 0.000000
7.714328 12.166179 0.349812 0.000000
11.077286 15.301574 1.611964 0.000000
7.481757 11.950393 0.178798 0.000000
12.242750 1.559962 -1.952545 0.000000
8.324137 8.660146 -1.571490 0.000000
130.965607 -92.562820 0.373392 0.000000
71.306015 13.581364 1.657585 0.000000
62.689182 3.927886 0.088677 0.000000
107.468987 -12.278582 3.054449 0.000000
29.325031 9.482382 -1.875561 0.000000
8.781997 8.590127 -1.522596 0.000000
14.144101 8.442098 -0.583285 0.000000
139.030533 -116.100479 8.230618 0.000000
84.431892 13.593889 3.420999 0.000000
18.030901 -10.907019 -1.821234 0.000000
22.143641 -12.497106 -1.833024 0.000000
59.732365 -16.530426 0.314503 0.000000
9.994739 12.807460 0.835293 0.000000
20.436243 5.626891 -1.846453 0.000000
68.976463 8.929809 1.705624 0.000000
75.408958 3.169573 4.431164 0.000000
20.316702 1.097713 -1.845775 0.000000
22.930561 -3.327449 -1.921170 0.000000
124.697067 74.289291 17.915339 0.000000
8.956600 -11.911816 -0.540629 0.000000
147.667740 -106.043152 11.454279 0.000000
86.190475 -5.433996 0.539515 0.000000
111.836716 -45.845150 0.046769 0.000000
24.475340 8.904215 4.727884 0.000000
10.917610 -1.873015 -1.965075 0.000000
57.016823 -10.255660 1.277998 0.000000
44.051277 13.850039 -1.360312 0.000000
11.101924 9.417323 -0.587296 0.000000
17.091557 18.347868 3.417849 0.000000
9.245932 -12.074409 -0.500320 0.000000
68.751396 -2.113578 0.181771 0.000000
57.587765 -8.092237 1.257803 0.000000
11.122087 9.613638 -0.469206 0.000000
55.836330 8.110398 -1.707008 0.000000
9.210066 -8.916248 -1.204381 0.000000
39.038143 -34.272232 -1.537711 0.000000
11.800317 8.284771 -1.108729 0.000000
104.308548 -11.857284 2.617468 0.000000
41.328884 -16.252003 -2.046961 0.000000
28.832354 5.586010 1.482632 0.000000
7.262998 3.878565 -1.801399 0.000000
130.380981 11.775687 16.038944 0.000000
8.804795 13.668328 0.903808 0.000000
119.013695 50.840622 9.693050 0.000000
13.374940 13.032230 1.325210 0.000000
11.762861 9.595432 -0.354284 0.000000
7.324646 -8.990438 -1.191749 0.000000
14.501595 -17.119802 0.311591 0.000000
73.190323 -17.549400 -0.070143 0.000000
12.784514 9.257263 -0.350669 0.000000
64.385437 2.287824 0.390683 0.000000
68.044716 1.280896 0.705591 0.000000
102.038910 39.360687 5.098302 0.000000
132.792908 -124.478012 3.790338 0.000000
66.174393 -3.829585 -0.413820 0.000000
7.860667 -12.771688 -0.293925 0.000000
11.648510 0.785287 -1.969492 0.000000
10.264356 -13.277838 -0.208347 0.000000
8.078364 -13.337334 -0.143643 0.000000
119.908890 -128.348282 6.053728 0.000000
13.377092 7.700802 -1.187575 0.000000
7.426449 12.193529 0.309578 0.000000
72.280846 -19.964735 -0.333652 0.000000
9.171631 10.543713 -0.309899 0.000000
91.321213 -5.541320 1.450615 0.000000
11.668969 -14.854378 0.024633 0.000000
18.540981 7.287633 -0.783129 0.000000
17.939386 11.577859 1.332532 0.000000
8.833894 -6.704995 -1.663594 0.000000
14.038538 8.574913 -0.507182 0.000000
63.145496 5.809817 0.169893 0.000000
32.732494 6.460810 -1.887814 0.000000
109.084236 57.749794 12.272187 0.000000
29.818214 5.460997 3.623842 0.000000
20.268810 17.817533 3.443213 0.000000
8.781844 -11.463902 -0.659541 0.000000
94.035126 28.367996 1.781134 0.000000
9.005535 -2.111995 -1.958366 0.000000
28.047081 -9.372261 -2.012476 0.000000
16.565231 18.176212 3.268763 0.000000
60.239967 5.691449 -0.740465 0.000000
39.212044 -7.087810 -1.460324 0.000000
11.053818 10.484075 0.023618 0.000000
15.669453 0.464182 -1.965575 0.000000
60.864948 4.279312 -0.497028 0.000000
17.870026 7.701399 -0.591739 0.000000
75.287331 -8.893021 -0.120772 0.000000
94.037163 51.969872 3.942782 0.000000
14.100279 9.803224 0.224499 0.000000
25.725916 -5.478170 -1.946251 0.000000
120.656509 74.867676 15.121298 0.000000
16.859375 9.215252 0.300592 0.000000
13.505824 -3.650098 -1.971465 0.000000
83.443321 14.550780 3.263174 0.000000
11.955855 9.804136 -0.195147 0.000000
10.111928 -16.627478 0.471563 0.000000
71.235886 -3.542495 0.235785 0.000000
7.794998 12.720261 0.532246 0.000000
15.712366 8.188218 -0.547719 0.000000
59.749531 -16.411089 0.315811 0.000000
10.284575 14.781207 1.377558 0.000000
10.072349 -3.061579 -1.960619 0.000000
25.813906 7.914805 5.403326 0.000000
14.115294 3.848413 -1.825415 0.000000
82.284210 -2.192796 0.831811 0.000000
13.123543 -10.328140 -1.327808 0.000000
11.983710 11.017791 0.516029 0.000000
128.747437 -82.893547 6.158369 0.000000
23.875467 9.816934 3.340283 0.000000
15.476986 4.750373 -1.829780 0.000000
30.693411 3.413747 1.955549 0.000000
12.058354 12.120894 0.923620 0.000000
8.718352 3.258235 -1.807073 0.000000
63.872486 5.228891 0.417885 0.000000
10.688739 -8.337282 -1.495811 0.000000
105.495522 -39.920357 -0.539889 0.000000
9.928662 8.900869 -1.117368 0.000000
26.644588 6.547660 1.409090 0.000000
84.526154 -10.504692 7.718888 0.000000
9.046803 9.209879 -1.110301 0.000000
67.729851 -4.646808 -0.352341 0.000000
87.522614 -8.242232 1.319391 0.000000
16.397020 7.241724 -1.098517 0.000000
8.199244 12.599540 0.552869 0.000000
9.955743 10.060545 -0.437627 0.000000
11.670979 11.109009 0.507878 0.000000
26.268915 -2.579359 -1.862853 0.000000
13.429193 15.014899 1.839162 0.000000
56.965576 -8.452318 1.024881 0.000000
32.192440 1.617576 -1.885107 0.000000
19.673429 -12.890467 -1.822813 0.000000
24.842026 1.654353 -1.860906 0.000000
12.589828 10.880589 0.554899 0.000000
8.244084 11.647673 0.151360 0.000000
18.481358 -9.521852 -1.825949 0.000000
15.030467 14.905602 1.884516 0.000000
16.506609 9.195798 0.240683 0.000000
10.125097 10.483683 -0.158349 0.000000
127.327934 -11.996035 7.152987 0.000000
72.746529 -3.449130 0.419811 0.000000
24.292173 8.785622 5.015460 0.000000
24.109718 10.139993 4.942320 0.000000
11.814125 -8.104414 -1.804193 0.000000
11.362341 9.747723 -0.344189 0.000000
12.764071 10.835421 0.562753 0.000000
29.073944 5.404092 3.096555 0.000000
17.933161 12.570818 1.518232 0.000000
8.266467 9.805140 -0.916635 0.000000
11.927987 11.402643 0.723309 0.000000
46.216991 -6.673932 -1.222884 0.000000
53.183582 -30.042616 -1.941716 0.000000
73.485878 -18.889915 -0.047400 0.000000
118.486336 -49.040092 13.224620 0.000000
57.483734 -15.542402 2.059518 0.000000
14.666800 -17.264904 0.330927 0.000000
11.637653 8.309697 -1.126132 0.000000
49.723728 -1.373620 -1.142166 0.000000
59.850052 6.130413 -0.877669 0.000000
7.841457 9.140967 -1.352088 0.000000
81.690872 -6.843832 0.323396 0.000000
9.244290 4.772175 -1.807827 0.000000
65.338173 -0.706976 -0.059436 0.000000
7.938548 12.031410 0.315111 0.000000
55.731319 8.340408 -0.793104 0.000000
11.357220 1.788046 -1.910602 0.000000
10.022953 9.101350 -0.982327 0.000000
101.767395 -125.037903 13.400571 0.000000
8.631428 0.170039 -1.959285 0.000000
64.764389 4.744678 0.714589 0.000000
24.895344 9.528951 2.190522 0.000000
118.682922 -90.239822 -0.517047 0.000000
14.016094 9.174724 -0.157215 0.000000
7.963928 1.208611 -1.957411 0.000000
116.822533 -129.133499 6.802274 0.000000
8.182461 5.908375 -1.802541 0.000000
20.430204 1.979826 -1.846455 0.000000
98.009552 37.273533 3.689262 0.000000
16.950523 -11.071259 -1.816751 0.000000
118.988144 -137.993729 8.184515 0.000000
9.608113 -8.127976 -1.364279 0.000000
64.924377 -0.130717 -0.028267 0.000000
8.027002 -11.610805 -0.610202 0.000000
144.028534 -93.240593 8.697091 0.000000
78.100372 -3.743443 2.357405 0.000000
18.666239 17.640270 3.181926 0.000000
8.662858 10.066261 -0.687200 0.000000
13.181458 -12.472412 -0.669220 0.000000
10.830148 8.116847 -1.396500 0.000000
11.889956 -16.760077 0.393176 0.000000
16.063778 6.396996 -1.715045 0.000000
65.721718 -0.169788 0.071422 0.000000
55.663086 -14.815651 -0.894087 0.000000
59.139664 -36.421108 -1.735193 0.000000
70.934616 -18.474323 8.020780 0.000000
10.772346 1.825051 -1.966809 0.000000
27.337755 5.368210 2.350818 0.000000
23.525116 5.903015 2.307829 0.000000
24.158379 10.726081 4.582261 0.000000
83.628166 8.048370 3.527797 0.000000
11.823044 -17.944420 0.695998 0.000000
18.956184 -1.157402 -1.992346 0.000000
17.636719 -1.431922 -1.987769 0.000000
22.993244 15.083090 2.193491 0.000000
10.564789 10.800066 0.111727 0.000000
30.304169 7.252789 1.215477 0.000000
38.629364 -29.923138 -2.006450 0.000000
120.848213 -64.266182 1.821924 0.000000
16.036854 10.051710 0.748506 0.000000
9.244275 -15.837934 0.364648 0.000000
7.224199 11.233866 -0.288638 0.000000
73.604721 2.162908 3.723029 0.000000
14.774496 4.789192 -1.827347 0.000000
30.744642 -4.265333 -1.876021 0.000000
18.647861 -15.542794 -1.122439 0.000000
11.669654 -15.507657 0.155370 0.000000
17.778120 -12.860254 -1.795153 0.000000
112.395210 49.123680 20.082579 0.000000
67.365898 -0.813710 0.192399 0.000000
8.224477 10.099874 -0.753340 0.000000
102.730629 -9.994794 2.629337 0.000000
112.826530 -12.199961 3.564652 0.000000
146.201508 -102.889099 7.405684 0.000000
68.219711 -18.151117 -1.669238 0.000000
12.226240 -18.303049 0.780202 0.000000
100.783096 40.283981 4.799839 0.000000
58.679951 13.441124 -1.591678 0.000000
39.423477 14.249500 -1.365382 0.000000
80.357857 -3.418904 7.162076 0.000000
9.238413 9.582478 -0.856072 0.000000
55.740356 14.372661 -1.000304 0.000000
73.861465 -7.744407 -0.172588 0.000000
17.003849 -6.300987 -1.826875 0.000000
9.338780 3.133236 -1.809293 0.000000
15.084446 -10.594738 -1.709061 0.000000
65.161186 6.712142 0.901924 0.000000
62.998886 1.416781 -0.006782 0.000000
73.992310 22.011599 3.193462 0.000000
57.958103 -12.815655 3.005850 0.000000
69.461449 -1.486659 0.368850 0.000000
138.943985 -114.679848 10.571200 0.000000
24.266525 -0.616194 -1.857821 0.000000
24.893877 8.872438 5.623332 0.000000
7.874832 10.142773 -0.796712 0.000000
75.479912 22.543285 3.836650 0.000000
59.132412 -10.578091 4.440779 0.000000
12.712658 -12.967341 -0.414051 0.000000
61.363773 -7.727109 1.421114 0.000000
19.318312 3.431806 -1.842980 0.000000
9.893929 0.072253 -1.963384 0.000000
19.056713 -1.386194 -1.992491 0.000000
17.214693 4.024741 -1.835881 0.000000
121.945084 -55.373947 7.062347 0.000000
19.439146 -5.351309 -1.989186 0.000000
67.941353 1.621478 0.765976 0.000000
8.498426 10.212729 -0.634116 0.000000
74.481812 25.172966 3.372957 0.000000
124.701782 -74.652397 4.331110 0.000000
9.598341 3.966411 -1.809735 0.000000
8.070500 10.148932 -0.754880 0.000000
13.946750 -0.794343 -1.976127 0.000000
8.850092 2.769392 -1.807760 0.000000
10.824758 1.262727 -1.966912 0.000000
9.430048 11.408453 0.243818 0.000000
91.623512 -4.022554 1.191414 0.000000
15.819431 17.969084 3.077679 0.000000
100.606606 -9.539833 2.373507 0.000000
31.764795 7.023616 -1.884519 0.000000
91.723946 -31.758400 2.394615 0.000000
12.472136 7.423044 -1.495798 0.000000
65.669724 19.481297 0.402859 0.000000
64.154922 4.742138 0.522886 0.000000
61.838352 5.530425 -0.232167 0.000000
39.194553 -10.352393 -1.251539 0.000000
25.094997 10.074012 2.203768 0.000000
10.860719 9.367850 -0.663300 0.000000
59.572441 3.331093 -0.886786 0.000000
63.795986 -14.221931 0.244868 0.000000
16.803734 9.055971 0.185210 0.000000
96.165512 1.134257 1.715598 0.000000
13.673453 -19.493729 1.050426 0.000000
49.695377 -2.452011 -1.337440 0.000000
7.818542 12.208099 0.394561 0.000000
13.908495 2.578354 -1.824896 0.000000
80.469307 -6.311283 2.169247 0.000000
62.497715 8.830317 0.336809 0.000000
30.375015 7.142106 0.916533 0.000000
24.229143 9.686205 1.626889 0.000000
79.832787 -13.191400 -0.043446 0.000000
75.555382 -0.993049 3.096412 0.000000
46.045349 -7.196582 -2.035025 0.000000
25.449787 12.450132 2.149879 0.000000
13.085595 9.554723 -0.118786 0.000000
11.762561 -12.565455 -0.438783 0.000000
146.936035 -104.445747 6.502201 0.000000
21.439562 -1.893542 -1.847517 0.000000
13.324083 9.553114 -0.072978 0.000000
31.806061 3.180844 2.227696 0.000000
11.371310 13.889560 1.288120 0.000000
8.776052 8.234336 -1.730656 0.000000
64.984970 0.054955 0.006892 0.000000
83.901398 15.595042 3.088599 0.000000
8.111989 12.467966 0.508043 0.000000
33.446018 -0.648065 -1.887999 0.000000
42.042591 3.707785 -2.070742 0.000000
8.254163 -10.323347 -0.918761 0.000000
100.601990 -125.368629 7.582902 0.000000
17.394840 15.651908 2.082340 0.000000
63.470024 -1.766773 -0.463883 0.000000
58.491791 -11.656434 4.763531 0.000000
8.225093 9.896084 -0.871810 0.000000
9.122780 -4.659443 -1.801959 0.000000
46.435432 -8.260744 -0.542055 0.000000
127.246918 -12.537916 8.646103 0.000000
7.376802 -8.029854 -1.387555 0.000000
64.998207 -0.000003 -0.001033 0.000000
109.013031 -0.705991 9.987344 0.000000
33.734108 -7.878875 0.552068 0.000000
40.818081 13.696397 -2.065823 0.000000
7.889237 12.347304 0.448734 0.000000
122.037285 -51.982765 4.467148 0.000000
24.008404 8.055624 1.763443 0.000000
13.784638 -20.112921 1.246279 0.000000
18.913183 -2.011868 -1.991462 0.000000
14.433138 6.882181 -1.602552 0.000000
8.880989 10.607409 -0.329658 0.000000
9.398885 3.620507 -1.809249 0.000000
14.398941 9.121339 -0.113169 0.000000
10.420751 11.248167 0.344233 0.000000
123.656166 -156.380783 8.897762 0.000000
63.463676 24.996983 -0.465327 0.000000
7.922788 0.235812 -1.956988 0.000000
9.905912 11.561971 0.426159 0.000000
57.578430 -11.856844 7.828204 0.000000
17.052046 -4.422092 -1.982409 0.000000
14.982891 7.936084 -0.815306 0.000000
73.242538 -3.259455 0.509067 0.000000
35.908291 -21.880333 -2.015731 0.000000
55.744629 -4.610194 -0.411780 0.000000
121.259048 -65.480812 8.336473 0.000000
8.934525 8.522807 -1.531878 0.000000
25.868675 8.780357 -0.596136 0.000000
51.143299 -31.030031 -2.052068 0.000000
122.854599 -46.512375 7.845734 0.000000
49.699574 -3.086257 -1.451767 0.000000
9.240509 4.725274 -1.807856 0.000000
12.193352 11.678974 0.827935 0.000000
149.725357 -137.614807 7.753587 0.000000
138.605591 -106.998878 1.592539 0.000000
12.790536 10.805652 0.550624 0.000000
21.972748 16.733881 3.011019 0.000000
43.042080 -32.196045 -1.661078 0.000000
13.341267 1.255321 -1.939783 0.000000
124.019508 -135.298889 9.183586 0.000000
26.379948 -16.656830 -1.839440 0.000000
94.205162 -1.464027 1.424425 0.000000
11.523707 8.230002 -1.194783 0.000000
17.441608 8.379192 -0.189134 0.000000
8.057412 -4.963469 -1.797339 0.000000
7.800436 11.417702 -0.069132 0.000000
101.539177 6.702516 2.774554 0.000000
21.037928 -0.242085 -1.847446 0.000000
10.361880 7.927411 -1.598387 0.000000
7.684340 9.792305 -1.037901 0.000000
104.101715 13.137270 13.592802 0.000000
15.851461 6.324364 -1.792410 0.000000
39.177765 -9.371287 -1.524897 0.000000
43.555569 1.174026 -2.074700 0.000000
58.150990 -36.276043 -1.799471 0.000000
39.165710 -9.671859 -1.590707 0.000000
34.486511 10.960657 -1.892740 0.000000
20.903727 5.864177 -1.847979 0.000000
108.133759 -5.690496 3.896248 0.000000
55.454063 -25.812710 -1.926687 0.000000
10.704446 3.044496 -1.814018 0.000000
10.254772 -9.728745 -1.037346 0.000000
134.400208 -121.920959 9.354384 0.000000
11.930472 -13.220260 -0.317677 0.000000
13.347793 -10.749016 -1.230549 0.000000
119.696175 -80.102081 1.500469 0.000000
32.268711 -9.424973 -1.874508 0.000000
8.929074 10.628462 -0.308009 0.000000
60.811474 3.824011 -0.498752 0.000000
17.163172 1.267762 -1.835448 0.000000
89.765755 -26.339897 3.474299 0.000000
27.959341 3.226029 -1.871662 0.000000
24.923088 7.592603 2.916536 0.000000
55.501179 -10.042225 5.403341 0.000000
8.152960 9.958485 -0.849606 0.000000
40.910271 12.365663 -2.066680 0.000000
124.290726 -157.301422 12.044086 0.000000
59.548435 9.894360 -0.557473 0.000000
12.910915 -17.523193 0.485849 0.000000
11.934170 -5.095827 -1.811204 0.000000
137.369873 -120.210396 13.228747 0.000000
46.469742 -7.699671 -0.502089 0.000000
39.434395 14.808540 -1.399556 0.000000
10.134452 11.490764 0.429403 0.000000
8.004069 -12.649756 -0.328777 0.000000
7.358140 -3.106889 -1.798694 0.000000
30.304934 7.217793 -0.288102 0.000000
13.342072 8.951161 -0.419257 0.000000
46.358856 12.566154 -2.085230 0.000000
26.345194 -9.069448 -2.007082 0.000000
75.011314 -7.636541 -0.068434 0.000000
8.279919 13.282881 0.738165 0.000000
12.699387 -15.338367 0.060949 0.000000
10.809992 7.516349 -1.749389 0.000000
12.940441 -6.956496 -1.811080 0.000000
116.750542 -39.680546 8.376190 0.000000
57.715988 -11.244016 3.030390 0.000000
84.944344 -9.704800 10.027693 0.000000
15.340487 9.801016 0.466333 0.000000
6.874872 9.909574 -0.965883 0.000000
145.637589 -94.716385 9.495590 0.000000
44.495739 -1.448293 -2.076211 0.000000
65.765152 -8.713918 -1.204872 0.000000
16.160568 -4.007395 -1.979968 0.000000
16.827219 7.713993 -0.721432 0.000000
6.804947 10.781824 -0.610195 0.000000
55.695168 3.371964 -0.944731 0.000000
14.798931 -6.461774 -1.818807 0.000000
55.700706 11.346485 -1.571197 0.000000
8.924823 -10.210419 -0.940992 0.000000
44.922565 -17.339752 -2.057642 0.000000
140.997009 -104.471985 7.798379 0.000000
99.495094 5.336044 2.319210 0.000000
7.082023 11.935046 0.091885 0.000000
8.790607 8.385015 -1.640192 0.000000
68.273354 13.965656 1.448581 0.000000
76.356522 24.365902 3.182004 0.000000
12.346176 4.837642 -1.818873 0.000000
8.062978 -8.961449 -1.196745 0.000000
64.554451 1.622443 0.267806 0.000000
11.083852 4.657187 -1.814533 0.000000
18.837933 -15.929182 -1.042504 0.000000
147.714096 -155.543076 7.202188 0.000000
113.798462 -117.460983 4.968731 0.000000
19.860983 -6.776347 -1.988409 0.000000
65.790367 19.980677 0.460495 0.000000
13.417516 -2.213969 -1.973022 0.000000
16.200718 -13.826748 -1.036468 0.000000
62.699970 0.635556 -0.207686 0.000000
15.386814 8.620628 -0.297649 0.000000
31.053738 3.465717 2.957171 0.000000
7.225541 10.338521 -0.809615 0.000000
22.889370 15.453975 2.389858 0.000000
8.805609 -5.663086 -1.798537 0.000000
93.224663 -4.562038 1.577337 0.000000
83.390541 8.025414 2.768638 0.000000
22.765446 1.933448 -1.854154 0.000000
17.620890 0.206926 -1.836474 0.000000
129.116501 -123.727081 9.199995 0.000000
17.439137 -6.689048 -1.827718 0.000000
11.510447 1.937958 -1.819038 0.000000
8.243561 12.551055 0.546098 0.000000
15.647588 -0.267212 -1.982100 0.000000
58.239708 15.314462 -1.829744 0.000000
118.762436 -96.155701 2.542753 0.000000
39.038269 -34.255024 -1.535369 0.000000
74.512131 1.775952 8.019848 0.000000
55.685986 3.459251 -0.906201 0.000000
66.971252 -1.939353 -0.027290 0.000000
14.085127 8.914199 -0.295040 0.000000
12.370056 10.815307 0.473908 0.000000
109.075058 -13.886457 3.082511 0.000000
10.071356 8.649776 -1.235407 0.000000
10.696849 -17.501080 0.646111 0.000000
8.824710 12.647939 0.645055 0.000000
14.021585 0.372643 -1.977123 0.000000
134.851807 -116.681541 8.164698 0.000000
12.902390 -4.701365 -1.815321 0.000000
51.590271 0.977369 -2.101032 0.000000
14.223463 11.376902 1.011013 0.000000
58.215614 -10.323611 1.858104 0.000000
67.602364 -35.324753 -1.758012 0.000000
19.145046 -6.669912 -1.986103 0.000000
83.945183 43.120579 6.429399 0.000000
9.287506 -7.526148 -1.487274 0.000000
28.866318 7.009573 5.670061 0.000000
136.271072 -61.942684 3.174198 0.000000
14.897160 5.995177 -1.827137 0.000000
122.753761 74.099815 12.191818 0.000000
63.400192 -2.781716 -0.673185 0.000000
43.126804 8.260917 -2.074966 0.000000
10.284883 -13.614774 -0.142104 0.000000
11.387401 7.860859 -1.436003 0.000000
58.514599 -9.731009 5.564062 0.000000
24.425468 8.747368 3.589294 0.000000
22.875959 6.046525 -1.854643 0.000000
49.511150 -5.349211 -2.089523 0.000000
58.064510 8.146205 -1.386082 0.000000
57.694206 -11.362880 3.001252 0.000000
6.893816 10.117405 -0.884021 0.000000
72.657104 -18.818394 5.167623 0.000000
17.258717 0.884796 -1.835614 0.000000
71.669624 -18.704454 4.662775 0.000000
10.319837 8.600606 -1.215318 0.000000
120.401405 -97.042259 6.605406 0.000000
31.489836 -14.538517 -2.015245 0.000000
24.018654 5.199744 -1.858653 0.000000
124.911758 -75.168541 4.879082 0.000000
55.718315 4.058185 -0.807740 0.000000
22.717907 9.032595 2.923289 0.000000
76.984978 5.207611 2.428809 0.000000
73.824738 2.622847 3.835906 0.000000
29.160845 5.573624 3.166673 0.000000
7.576755 2.367766 -1.955938 0.000000
30.670147 4.317314 3.168036 0.000000
17.269424 2.762977 -1.836116 0.000000
29.320076 3.980904 -1.876311 0.000000
9.615327 14.165813 1.134592 0.000000
10.544243 7.533967 -1.791259 0.000000
19.534039 -2.448471 -1.993094 0.000000
98.832863 4.461003 2.210764 0.000000
72.333748 -34.855946 -0.999529 0.000000
7.355713 10.388877 -0.754875 0.000000
92.038902 -4.176931 1.294550 0.000000
10.414078 10.564607 -0.054737 0.000000
82.266357 12.218450 5.327884 0.000000
10.326791 2.623574 -1.812843 0.000000
14.853074 -3.993875 -1.975550 0.000000
66.952637 1.180332 0.522549 0.000000
14.001692 11.250077 0.950170 0.000000
60.742523 0.277243 -0.697313 0.000000
19.861416 -1.449655 -1.939426 0.000000
11.605921 12.517864 0.967211 0.000000
7.631298 9.369959 -1.243347 0.000000
64.124802 1.858163 0.256956 0.000000
16.767086 7.205281 -1.074147 0.000000
8.276434 8.145692 -1.785971 0.000000
63.098167 2.984140 0.248709 0.000000
23.311460 9.505818 4.029300 0.000000
57.894413 -11.860413 3.188354 0.000000
127.610199 -12.489805 5.698604 0.000000
74.950790 -22.332502 -0.220126 0.000000
9.539282 -9.148335 -1.156626 0.000000
116.810371 -115.356781 0.764986 0.000000
60.200554 3.849115 -0.691818 0.000000
55.568783 -20.681770 -1.570871 0.000000
13.790642 12.951581 1.357845 0.000000
19.758799 16.163298 2.467970 0.000000
25.529268 12.372479 2.171956 0.000000
119.355247 -80.185020 6.991777 0.000000
58.285385 9.937692 -1.303748 0.000000
8.668644 -6.208242 -1.796680 0.000000
128.289642 69.042534 22.895090 0.000000
118.357941 -61.965328 -0.852067 0.000000
63.047798 3.660861 0.210381 0.000000
34.032303 -4.151509 -1.887040 0.000000
31.412909 10.426136 -1.882362 0.000000
11.289429 7.538749 -1.642353 0.000000
46.292358 14.517471 -2.046657 0.000000
15.833149 0.422463 -1.855584 0.000000
6.852401 11.060716 -0.462005 0.000000
8.390874 12.833124 0.637125 0.000000
59.054752 -12.489360 8.196754 0.000000
9.195914 14.130789 1.072123 0.000000
110.663742 -129.715271 4.903067 0.000000
63.189785 3.623386 0.256304 0.000000
65.411942 -5.644886 -0.787858 0.000000
63.617054 1.088428 0.011317 0.000000
25.604685 7.796793 5.225528 0.000000
10.668331 7.680611 -1.681726 0.000000
8.047092 11.285340 -0.098025 0.000000
7.329986 -8.842486 -1.221914 0.000000
12.023280 -15.233893 0.079769 0.000000
25.203745 -11.075036 -1.999480 0.000000
62.969704 12.113952 1.094764 0.000000
66.401245 -4.895476 -0.544384 0.000000
14.311484 10.112048 0.445369 0.000000
20.545969 5.551083 -1.846847 0.000000
55.547203 -25.512253 -1.550909 0.000000
8.137210 12.062685 0.372095 0.000000
42.606647 -33.138947 -1.160316 0.000000
60.840652 -0.405977 -0.855309 0.000000
24.397509 -9.508435 -1.999529 0.000000
10.319002 10.083164 -0.353378 0.000000
57.507847 4.382901 -1.898780 0.000000
56.127010 -12.003931 3.223688 0.000000
9.984324 -5.220508 -1.803929 0.000000
87.625343 41.985394 1.469315 0.000000
9.063806 -3.743875 -1.803551 0.000000
61.959877 10.484781 0.450816 0.000000
76.276031 1.822916 12.427566 0.000000
63.525204 4.120643 0.345353 0.000000
20.893038 16.311291 2.665615 0.000000
10.273458 -10.132172 -0.955137 0.000000
77.560677 -2.383313 1.809866 0.000000
8.480812 -2.843008 -1.955485 0.000000
57.099663 -9.159058 1.129060 0.000000
7.811780 -5.691653 -1.794629 0.000000
52.377895 -22.808565 -2.073919 0.000000
12.963142 9.150794 -0.377534 0.000000
65.803284 -2.532280 -0.269775 0.000000
55.602436 -23.554327 -1.600776 0.000000
8.236809 -7.275451 -1.539991 0.000000
7.590899 -8.846334 -1.220815 0.000000
119.809204 -138.268204 10.822690 0.000000
61.470692 4.916328 -0.327534 0.000000
8.122045 2.382993 -1.900834 0.000000
7.569263 -9.221431 -1.144339 0.000000
22.753311 4.467846 -1.854458 0.000000
11.450729 -3.982925 -1.811489 0.000000
90.050400 37.344807 1.366652 0.000000
11.552862 11.689919 0.748703 0.000000
12.858188 8.746243 -0.633190 0.000000
11.331178 -17.605324 0.625925 0.000000
64.306656 14.323820 0.915738 0.000000
9.701127 -13.599757 -0.110742 0.000000
68.292419 -3.687695 -0.116130 0.000000
9.555948 9.697433 -0.727072 0.000000
33.738480 -7.838167 0.716008 0.000000
76.808945 24.305021 4.270553 0.000000
11.531126 11.041633 0.441322 0.000000
103.017654 14.819527 13.883607 0.000000
14.852934 8.466193 -0.473077 0.000000
25.818155 7.467578 4.534273 0.000000
7.354849 9.560704 -1.144569 0.000000
56.802307 -36.312611 -0.725298 0.000000
16.485744 6.900210 -1.318160 0.000000
10.976392 14.935526 1.505375 0.000000
17.923729 -16.956184 -0.439379 0.000000
64.568954 -2.225025 -0.386994 0.000000
65.032242 -35.013855 -1.371431 0.000000
53.411552 8.190559 -2.099853 0.000000
9.410449 -1.413279 -1.960567 0.000000
25.588133 -5.091085 -1.857891 0.000000
28.416851 6.022082 3.779652 0.000000
13.361357 -5.268546 -1.815931 0.000000
87.352104 36.145889 0.532038 0.000000
33.834358 -7.722227 -1.222420 0.000000
121.513168 -54.387444 12.117833 0.000000
7.377552 10.394824 -0.747149 0.000000
7.804596 0.110000 -1.956533 0.000000
13.975675 8.858673 -0.348761 0.000000
8.428603 11.107668 -0.126929 0.000000
12.131623 2.918767 -1.818895 0.000000
7.930715 9.871381 -0.943730 0.000000
7.773083 10.317204 -0.715070 0.000000
30.254942 3.107984 -1.879229 0.000000
7.336256 10.434989 -0.731834 0.000000
11.708598 1.581001 -1.969899 0.000000
58.817902 -9.539749 2.045386 0.000000
8.709410 -3.418930 -1.802893 0.000000
111.091866 6.672134 5.236544 0.000000
66.662460 -0.989753 0.073328 0.000000
16.686613 7.334198 -0.997457 0.000000
59.320168 -8.219002 0.952081 0.000000
7.915759 10.951182 -0.318184 0.000000
29.705452 -12.321560 -2.013125 0.000000
82.062218 13.285896 4.948494 0.000000
29.734079 -12.640507 -2.012631 0.000000
95.577782 26.319641 2.150469 0.000000
39.244511 -8.763616 -1.209979 0.000000
59.079403 7.246350 -1.157012 0.000000
7.046492 -10.750895 -0.830290 0.000000
25.237001 5.566234 2.710740 0.000000
122.094177 -50.976933 7.185263 0.000000
14.182930 -0.836437 -1.976872 0.000000
8.602617 9.711362 -0.905473 0.000000
53.225864 -23.752665 -1.948539 0.000000
22.521627 1.245460 -1.853099 0.000000
15.011477 10.038761 0.539974 0.000000
58.120468 -7.460955 0.618415 0.000000
10.717250 11.845602 0.681568 0.000000
17.942554 6.128220 -1.647852 0.000000
74.186195 2.073531 7.441780 0.000000
83.908951 -9.675946 1.097631 0.000000
111.090141 49.197136 16.024298 0.000000
14.263456 -3.261229 -1.974570 0.000000
12.754802 -5.818769 -1.812744 0.000000
28.512344 7.907629 5.891284 0.000000
8.291467 11.954678 0.339328 0.000000
16.625561 10.441492 1.080688 0.000000
67.713982 -0.593228 0.271214 0.000000
9.063305 3.376951 -1.808212 0.000000
11.388049 10.947885 0.358792 0.000000
9.937448 12.606759 0.776606 0.000000
72.552292 -19.383850 -0.292280 0.000000
9.788800 -6.399943 -1.800536 0.000000
23.090853 11.540151 1.729399 0.000000
34.392525 -9.599342 -1.881500 0.000000
63.199631 -3.317779 -0.888805 0.000000
49.681137 -0.810156 -1.694936 0.000000
7.867640 10.087855 -0.830067 0.000000
26.737017 -14.918614 -1.844730 0.000000
9.944551 10.961928 0.084570 0.000000
70.946472 -35.623871 -1.726409 0.000000
18.289032 -11.705518 -1.820350 0.000000
14.698029 -16.837280 0.243539 0.000000
13.420869 -6.743587 -1.813287 0.000000
83.095573 13.652059 2.382411 0.000000
63.514141 0.888392 -0.048247 0.000000
8.586499 11.007737 -0.154240 0.000000
11.974474 1.639127 -1.902132 0.000000
28.494623 7.501848 2.089984 0.000000
120.456429 -96.696785 5.111411 0.000000
63.419273 -5.018458 -1.290318 0.000000
60.462841 2.568255 -0.566738 0.000000
31.392313 -8.805933 -1.872442 0.000000
46.299675 -29.777426 -2.036646 0.000000
74.929153 0.962562 5.741031 0.000000
92.831528 -128.672928 7.776345 0.000000
17.424982 -0.665880 -1.987675 0.000000
10.821225 -17.997158 0.800017 0.000000
15.274721 1.741834 -1.829346 0.000000
30.883621 0.720259 -1.880376 0.000000
81.168617 -1.912248 6.050411 0.000000
12.294076 0.541807 -1.971519 0.000000
8.229554 -0.145538 -1.957778 0.000000
21.747116 1.926583 -1.850789 0.000000
82.933601 -9.826327 0.908252 0.000000
60.947449 17.969442 -0.685294 0.000000
9.295213 -11.345007 -0.698179 0.000000
12.683845 12.657974 1.141025 0.000000
56.787167 -10.858713 0.251317 0.000000
94.832550 -25.400707 2.751446 0.000000
95.374992 -27.434233 7.747847 0.000000
134.393631 -118.512451 11.839734 0.000000
28.269094 4.841222 2.647937 0.000000
10.383585 -15.934190 0.316596 0.000000
10.019806 14.550237 1.284636 0.000000
12.093197 -13.895284 -0.192196 0.000000
8.522460 8.544029 -1.600206 0.000000
13.807738 9.370322 -0.084404 0.000000
8.674683 8.785678 -1.429864 0.000000
8.057615 10.240504 -0.704108 0.000000
8.856735 10.328603 -0.496643 0.000000
10.542030 3.373530 -1.813343 0.000000
10.979341 10.601510 0.077344 0.000000
9.822147 -14.904466 0.143443 0.000000
16.636242 -11.504760 -1.814490 0.000000
13.935000 0.751991 -1.977013 0.000000
7.064349 -10.095301 -0.966553 0.000000
15.589995 -1.365987 -1.981070 0.000000
11.107043 -4.220574 -1.809882 0.000000
68.890488 -0.297881 0.479421 0.000000
8.522247 7.205800 -1.802036 0.000000
111.139824 -6.023890 8.597081 0.000000
88.880798 -7.776310 1.463942 0.000000
16.676245 -12.875697 -1.492630 0.000000
8.498446 -14.322453 0.105034 0.000000
53.330036 -4.657940 -2.083568 0.000000
50.568329 -1.297717 -2.096295 0.000000
43.606091 -32.183540 -1.453720 0.000000
80.638496 -3.887401 3.217900 0.000000
104.774323 15.867373 8.867799 0.000000
65.150673 2.243301 0.493384 0.000000
12.401534 8.729102 -0.732673 0.000000
7.519074 -11.968888 -0.506771 0.000000
11.945838 8.343637 -1.045994 0.000000
49.697521 -2.341502 -1.756366 0.000000
50.465652 -0.432346 -0.714926 0.000000
14.831928 10.269323 0.638771 0.000000
119.805153 -46.649036 12.921277 0.000000
82.218468 -2.252126 1.548554 0.000000
53.205017 -26.512596 -1.957895 0.000000
10.102211 11.380054 0.358685 0.000000
10.304160 10.274315 -0.245100 0.000000
62.571304 0.765930 -0.205210 0.000000
13.516155 -1.802873 -1.973793 0.000000
62.104633 16.913828 -0.187436 0.000000
122.567635 20.235943 21.878826 0.000000
11.281770 7.719397 -1.538907 0.000000
9.523105 11.333865 0.218594 0.000000
14.642591 8.619924 -0.396675 0.000000
28.389353 6.689692 -1.873185 0.000000
12.640616 -3.687476 -1.968458 0.000000
15.747968 -3.820671 -1.978828 0.000000
95.122879 -26.345510 6.432242 0.000000
22.650969 5.889722 -1.853917 0.000000
7.103678 11.844731 0.043515 0.000000
135.847046 -120.151199 15.846232 0.000000
9.566828 -1.619200 -1.960859 0.000000
122.631874 -118.600243 1.280809 0.000000
14.180884 -3.165086 -1.974418 0.000000
17.227852 17.457979 2.934549 0.000000
15.352973 10.348186 0.786726 0.000000
24.246544 5.951191 2.682754 0.000000
62.695892 -2.680031 -0.877310 0.000000
54.569771 -17.089716 -1.939147 0.000000
11.767767 -10.335669 -1.036974 0.000000
6.955686 10.286819 -0.821036 0.000000
15.140307 -1.070061 -1.979839 0.000000
83.804810 15.119394 2.159257 0.000000
7.330931 -3.803400 -1.797209 0.000000
119.598083 -139.061981 11.024493 0.000000
103.691422 44.048321 8.108242 0.000000
19.057478 19.202280 4.093918 0.000000
75.285172 -0.242159 5.487118 0.000000
75.234161 2.191603 6.089894 0.000000
9.010750 -7.322813 -1.529095 0.000000
56.968685 -10.486100 0.364272 0.000000
10.440351 -12.361681 -0.437706 0.000000
54.081631 4.833790 -1.958434 0.000000
116.766579 -38.367401 10.259484 0.000000
10.486850 8.785442 -1.075148 0.000000
55.634796 -7.407067 -0.869320 0.000000
67.159355 -9.267776 -0.952102 0.000000
134.760513 -63.672085 4.892542 0.000000
12.674044 1.880438 -1.820745 0.000000
86.880836 37.779495 2.896621 0.000000
33.656128 11.164079 -1.889789 0.000000
63.600159 1.714982 0.147946 0.000000
19.002344 2.797637 -1.841885 0.000000
80.395760 12.919443 5.064914 0.000000
39.972561 16.060207 -0.614178 0.000000
93.090927 38.443226 2.290054 0.000000
73.101601 -35.076649 -1.483579 0.000000
57.326519 -11.240105 1.544290 0.000000
65.990562 -1.334030 -0.066689 0.000000
86.025490 -9.278133 1.341646 0.000000
15.730549 4.776278 -1.830641 0.000000
15.516487 -4.780069 -1.976635 0.000000
77.355293 -3.059555 1.759239 0.000000
56.752239 -52.708466 -0.810668 0.000000
8.099091 -8.838364 -1.221796 0.000000
13.881649 8.861083 -0.365800 0.000000
9.646334 4.987859 -1.809099 0.000000
9.863091 -9.433857 -1.097992 0.000000
20.459616 18.347315 3.758351 0.000000
12.965565 6.371483 -1.819956 0.000000
49.560032 -22.364126 -2.064712 0.000000
123.386528 -54.563107 3.796271 0.000000
8.000312 0.242885 -1.957246 0.000000
19.967535 19.154438 4.159264 0.000000
14.119233 9.462390 0.030155 0.000000
25.305023 6.527338 -1.862778 0.000000
11.801435 12.816566 1.068625 0.000000
8.167646 -13.161385 -0.192421 0.000000
7.637677 -0.869951 -1.955243 0.000000
60.860561 18.861923 -0.847305 0.000000
10.021267 10.168591 -0.361953 0.000000
18.106264 6.490003 -1.381106 0.000000
65.589615 8.718062 1.428856 0.000000
17.730488 8.295077 -0.207868 0.000000
48.501083 9.956254 -2.092903 0.000000
23.239620 7.698688 2.596558 0.000000
60.373371 10.498998 -0.170072 0.000000
74.969063 3.727886 1.981624 0.000000
7.849277 -13.092006 -0.207069 0.000000
36.537891 10.871720 -1.899818 0.000000
10.329376 13.180254 0.973453 0.000000
13.592632 1.190064 -1.899442 0.000000
13.416826 9.439307 -0.120940 0.000000
9.260242 -11.509650 -0.653220 0.000000
8.940155 -12.942097 -0.261711 0.000000
110.942978 -126.774261 6.084392 0.000000
64.911034 -0.695183 -0.114081 0.000000
7.164697 10.606886 -0.665263 0.000000
8.275333 10.123796 -0.729475 0.000000
9.269042 -9.218801 -1.142657 0.000000
115.072388 -10.147428 3.941954 0.000000
8.741972 13.061991 0.740519 0.000000
25.881552 8.781444 -0.082004 0.000000
11.928834 11.928217 0.857769 0.000000
7.948643 11.038196 -0.261113 0.000000
7.052466 11.744275 -0.024964 0.000000
8.332721 10.298079 -0.616837 0.000000
9.448933 8.314947 -1.552001 0.000000
24.237288 7.856277 2.433138 0.000000
8.326053 -7.298882 -1.535078 0.000000
118.633865 81.879807 14.032811 0.000000
69.355888 -28.080364 -1.479754 0.000000
111.029137 49.142277 15.622231 0.000000
145.657974 -96.370598 13.359711 0.000000
58.062206 -11.192119 5.464921 0.000000
11.159796 -6.523023 -1.805431 0.000000
63.053669 0.427116 -0.191943 0.000000
38.876259 -19.266638 -2.032398 0.000000
7.155442 10.273069 -0.842691 0.000000
62.304119 22.551466 -0.682370 0.000000
115.105324 -117.981064 8.342492 0.000000
24.116394 1.576615 -1.858485 0.000000
69.004280 1.204369 0.829831 0.000000
13.448244 9.048203 -0.342055 0.000000
17.014072 -14.883755 -0.898493 0.000000
6.803107 10.919351 -0.553930 0.000000
7.187728 -11.058340 -0.748909 0.000000
73.744186 -5.820166 0.099990 0.000000
8.629598 9.712273 -0.899661 0.000000
16.569838 6.521499 -1.563579 0.000000
64.611168 0.044604 -0.043515 0.000000
77.191620 20.854317 4.243142 0.000000
16.374453 -7.549253 -1.822333 0.000000
18.125837 17.245913 2.906988 0.000000
14.672350 -10.270752 -1.689750 0.000000
7.204171 11.621947 -0.066594 0.000000
29.481415 -23.258188 -1.835033 0.000000
10.217586 -13.677557 -0.125576 0.000000
59.002670 8.267671 -1.025811 0.000000
23.658167 8.367171 4.521662 0.000000
11.305757 14.555043 1.450047 0.000000
14.546750 9.540696 0.159466 0.000000
58.721565 11.645802 -1.318138 0.000000
19.412827 0.656758 -1.842602 0.000000
25.712803 8.983902 0.722955 0.000000
12.151130 -11.301351 -0.785800 0.000000
11.471820 8.206843 -1.218414 0.000000
10.104503 -11.976456 -0.537632 0.000000
8.966021 -12.106652 -0.488041 0.000000
103.845535 43.782806 17.093775 0.000000
9.978921 9.539642 -0.736059 0.000000
29.016905 6.560034 4.804426 0.000000
7.821890 9.945306 -0.921976 0.000000
75.186676 4.576516 3.052967 0.000000
39.304916 -32.480698 -0.209905 0.000000
13.463021 11.814304 1.025224 0.000000
72.131439 -19.367237 -0.419011 0.000000
12.832577 0.406017 -1.973227 0.000000
7.397583 9.303400 -1.251217 0.000000
9.283972 10.691391 -0.202010 0.000000
18.189117 -7.549606 -1.828801 0.000000
8.828808 -13.516289 -0.104916 0.000000
16.270067 5.721593 -1.832096 0.000000
11.344637 -10.137927 -1.015111 0.000000
12.406905 7.133019 -1.701091 0.000000
92.747826 49.512680 3.249610 0.000000
75.361443 2.557390 2.139351 0.000000
32.828400 -16.788641 -2.015518 0.000000
66.305878 3.544057 0.952269 0.000000
86.830101 -9.842257 1.558290 0.000000
9.211948 -0.406904 -1.960829 0.000000
55.603462 -20.377977 -1.564012 0.000000
7.703091 4.947062 -1.801901 0.000000
16.452726 7.642443 -0.819575 0.000000
18.194288 0.498526 -1.838515 0.000000
10.890264 11.525636 0.597494 0.000000
18.333906 16.164066 2.323958 0.000000
14.399096 9.631575 0.183324 0.000000
77.878906 -1.061315 2.306123 0.000000
66.599297 1.649544 0.574777 0.000000
101.099396 45.004803 10.245896 0.000000
25.874784 8.773189 -1.020726 0.000000
7.340672 -7.033243 -1.590675 0.000000
8.000015 -7.426548 -1.509588 0.000000
60.555599 -7.201522 -0.045173 0.000000
76.632660 20.116032 2.906829 0.000000
23.933867 -12.667169 -1.839264 0.000000
26.698351 -9.930257 -2.006846 0.000000
90.055214 36.790257 1.334848 0.000000
16.659704 9.219338 0.276921 0.000000
8.998855 -11.888110 -0.547572 0.000000
8.570374 -10.346306 -0.913714 0.000000
60.162422 -7.990763 1.167509 0.000000
24.860014 -5.050490 -2.007900 0.000000
15.458482 9.651161 0.402399 0.000000
104.739563 16.319469 12.843813 0.000000
21.341799 -12.657125 -1.829675 0.000000
8.629704 -9.682081 -1.049099 0.000000
125.153465 -47.425045 8.563519 0.000000
7.163975 -11.723988 -0.568463 0.000000
119.921257 61.076660 22.224144 0.000000
18.508816 -1.116199 -1.990904 0.000000
9.042721 8.631485 -1.447497 0.000000
64.158089 -3.853295 -0.721749 0.000000
8.106235 6.458282 -1.801473 0.000000
7.366699 -10.996253 -0.768013 0.000000
17.074707 9.618810 0.602778 0.000000
16.618036 -3.549889 -1.982120 0.000000
128.233002 -13.416148 4.315190 0.000000
89.510483 -128.650314 9.824046 0.000000
22.160309 5.358227 -1.852364 0.000000
10.246972 10.203124 -0.297700 0.000000
10.801741 14.795605 1.447259 0.000000
65.155380 5.594432 0.809464 0.000000
69.885750 30.009485 0.107878 0.000000
11.005814 -11.354233 -0.705093 0.000000
18.320753 13.647058 1.729355 0.000000
64.313034 6.259216 0.522406 0.000000
93.334579 29.949785 1.677432 0.000000
7.750256 -0.478029 -1.955960 0.000000
10.861457 10.054696 -0.263757 0.000000
10.859715 7.926879 -1.501100 0.000000
46.313473 -7.706840 -0.804821 0.000000
28.342079 5.251907 4.095746 0.000000
7.958926 0.049075 -1.957006 0.000000
15.992593 -1.102220 -1.982622 0.000000
18.240482 18.121405 3.407549 0.000000
66.041740 4.669041 1.119050 0.000000
25.334948 -15.426418 -1.838350 0.000000
10.815769 14.929425 1.483312 0.000000
