# .PCD v0.7 - Point Cloud Data file format
VERSION 0.7
FIELDS x y z rgb
SIZE 4 4 4 4
TYPE F F F F
COUNT 1 1 1 1
WIDTH 888
HEIGHT 1
VIEWPOINT 0 0 0 1 0 0 0
POINTS 888
DATA ascii
-5.715009689 -3.128959656 -1.921142817 2.277520305e-38
-5.640312195 -3.133595467 -1.902522087 2.277520305e-38
-5.651240826 -3.185540438 -1.912814379 2.277520305e-38
-5.619539738 -3.213596106 -1.908765435 2.277520305e-38
-5.579797745 -3.283120871 -1.908923149 2.277520305e-38
-5.552134514 -3.313260794 -1.906438589 2.277520305e-38
-5.551840782 -3.359827995 -1.913428664 2.277520305e-38
-5.535326004 -3.396769524 -1.914941072 2.277520305e-38
-5.520427704 -3.434804201 -1.917101622 2.277520305e-38
-5.499106407 -3.46890974 -1.917114615 2.277520305e-38
-5.457752705 -3.490157843 -1.910178542 2.277520305e-38
-5.44067955 -3.526849747 -1.911801696 2.277520305e-38
-5.443131924 -3.576473236 -1.920403242 2.277520305e-38
-5.393679142 -3.591881275 -1.910749435 2.277520305e-38
-5.389938831 -3.637742996 -1.917367935 2.277520305e-38
-5.329823017 -3.645343065 -1.903965831 2.277520305e-38
-5.295817375 -3.719044924 -1.908094883 2.277520305e-38
-5.288050175 -3.762642145 -1.913648725 2.277520305e-38
-5.291567326 -3.814614296 -1.923410177 2.277520305e-38
-5.211205959 -3.80594635 -1.902740836 2.277520305e-38
-5.19798851 -3.845769405 -1.906546474 2.277520305e-38
-5.159898758 -3.867171049 -1.901301026 2.277520305e-38
-5.169588566 -3.924650908 -1.91380322 2.277520305e-38
-5.115411758 -4.035226345 -1.921118021 2.277520305e-38
-5.049243927 -4.033950329 -1.905602694 2.277520305e-38
-5.031099319 -4.07062006 -1.908206344 2.277520305e-38
-5.024050713 -4.116579533 -1.915140033 2.277520305e-38
-4.993314743 -4.195708752 -1.923084378 2.277520305e-38
-4.946963787 -4.20929575 -1.915237188 2.277520305e-38
-4.925531864 -4.243714333 -1.917012334 2.277520305e-38
-4.889811516 -4.265935421 -1.913345933 2.277520305e-38
-4.834610462 -4.324319363 -1.912563682 2.277520305e-38
-4.825677872 -4.37006855 -1.919566631 2.277520305e-38
-4.788788795 -4.391158581 -1.915779829 2.277520305e-38
-4.755685806 -4.415219784 -1.913408637 2.277520305e-38
-4.758313656 -4.472659588 -1.925515652 2.277520305e-38
-4.698200226 -4.471281528 -1.912385821 2.277520305e-38
-4.659522057 -4.490609646 -1.908254385 2.277520305e-38
-4.625167847 -4.568270683 -1.916821241 2.277520305e-38
-4.574949741 -4.57465744 -1.907597065 2.277520305e-38
-4.55570364 -4.612399578 -1.911548972 2.277520305e-38
-4.532860279 -4.645930767 -1.913798094 2.277520305e-38
-4.494465351 -4.663583279 -1.909600496 2.277520305e-38
-4.455666542 -4.740134716 -1.918204188 2.277520305e-38
-4.380330086 -4.776996613 -1.911049247 2.277520305e-38
-4.361838341 -4.816287041 -1.915945768 2.277520305e-38
-4.331310749 -4.84246397 -1.915663481 2.277520305e-38
-4.306032181 -4.874517441 -1.917775035 2.277520305e-38
-4.260397911 -4.883374214 -1.910864711 2.277520305e-38
-4.223110199 -4.963251114 -1.92152524 2.277520305e-38
-4.160764217 -4.951699257 -1.907052994 2.277520305e-38
-4.14481163 -4.995121002 -1.913876891 2.277520305e-38
-4.105585098 -5.010590076 -1.910029054 2.277520305e-38
-4.09057045 -5.055702209 -1.917553306 2.277520305e-38
-4.059416294 -5.081083298 -1.917624354 2.277520305e-38
-4.038470268 -5.119547844 -1.922676325 2.277520305e-38
-3.97491312 -5.103589535 -1.907406688 2.277520305e-38
-3.958635092 -5.147849083 -1.914769411 2.277520305e-38
-3.938714981 -5.188218117 -1.92067492 2.277520305e-38
-3.89478302 -5.196752071 -1.914889932 2.277520305e-38
-3.880193233 -5.244591713 -1.923641086 2.277520305e-38
-3.828071833 -5.240530968 -1.913411498 2.277520305e-38
-3.794320822 -5.262527943 -1.912842393 2.277520305e-38
-3.75525713 -5.277659893 -1.909888744 2.277520305e-38
-3.714576483 -5.28946209 -1.905809999 2.277520305e-38
-3.718543291 -5.365398884 -1.924838543 2.277520305e-38
-3.693711758 -5.400542736 -1.929218292 2.277520305e-38
-3.625909567 -5.372509956 -1.91115129 2.277520305e-38
-3.622468472 -5.439600945 -1.92701745 2.277520305e-38
-3.568712234 -5.431370735 -1.916256785 2.277520305e-38
-3.538548708 -5.458723068 -1.918142676 2.277520305e-38
-3.490067959 -5.457648277 -1.910134196 2.277520305e-38
-3.440995932 -5.530395031 -1.920561552 2.277520305e-38
-3.40327549 -5.545972824 -1.918617725 2.277520305e-38
-3.391933441 -5.604782104 -1.931676507 2.277520305e-38
-3.319649696 -5.563009262 -1.910164356 2.277520305e-38
-3.304476738 -5.61592865 -1.921279192 2.277520305e-38
-3.272536993 -5.641375542 -1.923017502 2.277520305e-38
-3.231349707 -5.650568485 -1.919310093 2.277520305e-38
-3.193892717 -5.665926933 -1.917782664 2.277520305e-38
-3.153085709 -5.675460815 -1.914375424 2.277520305e-38
-3.129784346 -5.716464996 -1.92163682 2.277520305e-38
-3.095190525 -5.737226009 -1.922134161 2.277520305e-38
-3.058313131 -5.753783226 -1.921317101 2.277520305e-38
-3.028494596 -5.783576965 -1.924976945 2.277520305e-38
-2.946863174 -5.801263332 -1.918580651 2.277520305e-38
-2.902455568 -5.802458763 -1.913002491 2.277520305e-38
-2.838625908 -5.854740143 -1.918523431 2.277520305e-38
-2.806466818 -5.880678654 -1.921306252 2.277520305e-38
-2.761961222 -5.880789757 -1.915717721 2.277520305e-38
-2.730046749 -5.907594681 -1.918909431 2.277520305e-38
-2.684795141 -5.905250549 -1.912724376 2.277520305e-38
-2.662118673 -5.952785015 -1.922755361 2.277520305e-38
-2.621568441 -5.960719109 -1.920045495 2.277520305e-38
-2.591347456 -5.992269516 -1.925000668 2.277520305e-38
-2.562355518 -6.027342796 -1.93114078 2.277520305e-38
-2.514522552 -6.017912388 -1.923109412 2.277520305e-38
-2.486229658 -6.055232048 -1.93007791 2.277520305e-38
-2.435259581 -6.037090302 -1.919459701 2.277520305e-38
-2.402431726 -6.063545704 -1.923107862 2.277520305e-38
-2.361733675 -6.070025921 -1.920499325 2.277520305e-38
-2.330353498 -6.10086441 -1.925648093 2.277520305e-38
-2.249764681 -6.115621567 -1.921375155 2.277520305e-38
-2.21437788 -6.13649559 -1.923598528 2.277520305e-38
-2.167431355 -6.124587059 -1.915626407 2.277520305e-38
-2.137147665 -6.15999794 -1.922531366 2.277520305e-38
-2.102866411 -6.184434891 -1.926056981 2.277520305e-38
-2.061767817 -6.188839436 -1.923421502 2.277520305e-38
-2.027768135 -6.214672565 -1.927522898 2.277520305e-38
-1.978080988 -6.191975594 -1.916653514 2.277520305e-38
-1.946366668 -6.225314617 -1.923205018 2.277520305e-38
-1.908515215 -6.23942852 -1.923888445 2.277520305e-38
-1.870225072 -6.252222538 -1.924224257 2.277520305e-38
-1.826010346 -6.244817734 -1.918426156 2.277520305e-38
-1.792826772 -6.275118351 -1.92429626 2.277520305e-38
-1.753393412 -6.284031391 -1.92367065 2.277520305e-38
-1.715940475 -6.300023079 -1.925277352 2.277520305e-38
-1.677638292 -6.313026428 -1.926044703 2.277520305e-38
-1.634101987 -6.306059361 -1.920804739 2.277520305e-38
-1.594411969 -6.313496113 -1.920028329 2.277520305e-38
-1.517750263 -6.339244366 -1.921999812 2.277520305e-38
-1.482387662 -6.365031242 -1.927000523 2.277520305e-38
-1.439481378 -6.358512402 -1.922297716 2.277520305e-38
-1.411754847 -6.420181751 -1.938271523 2.277520305e-38
-1.324843049 -6.401442528 -1.92751348 2.277520305e-38
-1.282282352 -6.39481163 -1.923085809 2.277520305e-38
-1.244081378 -6.40976572 -1.925234795 2.277520305e-38
-1.202962399 -6.409481525 -1.922883987 2.277520305e-38
-1.168141484 -6.44343996 -1.930870295 2.277520305e-38
-1.118074059 -6.392243385 -1.913420081 2.277520305e-38
-1.082388878 -6.422072411 -1.92029953 2.277520305e-38
-1.04760313 -6.459022522 -1.929385543 2.277520305e-38
-1.000279188 -6.418160439 -1.915285826 2.277520305e-38
-0.9634225368 -6.443232536 -1.920958042 2.277520305e-38
-0.9258837104 -6.465353489 -1.925810456 2.277520305e-38
-0.8848115206 -6.463173389 -1.923492551 2.277520305e-38
-0.8495925069 -6.505229473 -1.934402585 2.277520305e-38
-0.8067020178 -6.488985062 -1.928048491 2.277520305e-38
-0.7638209462 -6.470555782 -1.921136856 2.277520305e-38
-0.7292872071 -6.524236202 -1.935705423 2.277520305e-38
-0.6872848272 -6.513453484 -1.931199551 2.277520305e-38
-0.6442634463 -6.490138531 -1.923073292 2.277520305e-38
-0.6052731872 -6.506408215 -1.92674315 2.277520305e-38
-0.5650753975 -6.510655403 -1.926931381 2.277520305e-38
-0.5234408379 -6.496860981 -1.921852112 2.277520305e-38
-0.4870052338 -6.550293922 -1.936736107 2.277520305e-38
-0.4456669092 -6.541512966 -1.933283687 2.277520305e-38
-0.3628180623 -6.51197052 -1.923075199 2.277520305e-38
-0.325075835 -6.565660477 -1.938311577 2.277520305e-38
-0.2826703191 -6.52520752 -1.925817728 2.277520305e-38
-0.2427397817 -6.538503647 -1.92925334 2.277520305e-38
-0.2011277825 -6.502270699 -1.918157101 2.277520305e-38
-0.161737442 -6.537288189 -1.928160787 2.277520305e-38
-0.1216030791 -6.553263187 -1.932602882 2.277520305e-38
-0.04038893431 -6.531681538 -1.925948858 2.277520305e-38
0.04012982175 -6.487576485 -1.912947893 2.277520305e-38
0.1216179878 -6.553740978 -1.932749629 2.277520305e-38
0.1613167524 -6.519340515 -1.922870755 2.277520305e-38
0.2024625242 -6.545097351 -1.930798173 2.277520305e-38
0.2427141815 -6.537711143 -1.9290241 2.277520305e-38
0.2823056579 -6.516706467 -1.923299313 2.277520305e-38
0.324772656 -6.55845356 -1.936182857 2.277520305e-38
0.3626308739 -6.508034706 -1.92191422 2.277520305e-38
0.405305326 -6.545487404 -1.933686972 2.277520305e-38
0.4471383393 -6.562624931 -1.939527869 2.277520305e-38
0.4851382673 -6.525273323 -1.929332733 2.277520305e-38
0.5660210252 -6.521086693 -1.930013537 2.277520305e-38
0.6095837355 -6.552608013 -1.940435886 2.277520305e-38
0.6505016088 -6.55255127 -1.941565752 2.277520305e-38
0.6899127364 -6.538475513 -1.938621163 2.277520305e-38
0.7273312807 -6.506917477 -1.930573106 2.277520305e-38
0.7668896317 -6.496737957 -1.928913116 2.277520305e-38
0.8131250143 -6.540428638 -1.943343759 2.277520305e-38
0.8941408396 -6.531421661 -1.943808556 2.277520305e-38
0.9304035306 -6.496948242 -1.935219526 2.277520305e-38
0.9699341059 -6.486794472 -1.933946967 2.277520305e-38
1.007597566 -6.465081215 -1.929286361 2.277520305e-38
1.047989726 -6.461398125 -1.930089355 2.277520305e-38
1.172483683 -6.46736145 -1.938031197 2.277520305e-38
1.21158421 -6.455400467 -1.936660886 2.277520305e-38
1.246682167 -6.423134804 -1.929252982 2.277520305e-38
1.284398675 -6.40536356 -1.926267743 2.277520305e-38
1.329262376 -6.422728062 -1.933924317 2.277520305e-38
1.367488027 -6.407608986 -1.931876898 2.277520305e-38
1.412240267 -6.422393322 -1.938940048 2.277520305e-38
1.448467016 -6.398266792 -1.93431747 2.277520305e-38
1.489697695 -6.396400452 -1.93650353 2.277520305e-38
1.528853059 -6.385425568 -1.936004758 2.277520305e-38
1.572403789 -6.392575264 -1.941084623 2.277520305e-38
1.613310575 -6.388252735 -1.942761779 2.277520305e-38
1.643202305 -6.341136932 -1.931486726 2.277520305e-38
1.690076947 -6.35981369 -1.940330625 2.277520305e-38
1.736881614 -6.376698494 -1.948721409 2.277520305e-38
1.759688854 -6.306499481 -1.930548191 2.277520305e-38
1.803414226 -6.312106133 -1.935640812 2.277520305e-38
1.834448934 -6.273650646 -1.927293181 2.277520305e-38
1.87096107 -6.254664898 -1.924972177 2.277520305e-38
1.917472839 -6.268684387 -1.932908893 2.277520305e-38
1.963693857 -6.280650616 -1.940306783 2.277520305e-38
2.028611422 -6.217295647 -1.928332925 2.277520305e-38
2.073316574 -6.223518372 -1.934202909 2.277520305e-38
2.105434895 -6.191877365 -1.928389192 2.277520305e-38
2.15319562 -6.206224918 -1.936963439 2.277520305e-38
2.195058823 -6.202723026 -1.940064549 2.277520305e-38
2.229887486 -6.179377556 -1.937037706 2.277520305e-38
2.274224997 -6.18222332 -1.94230473 2.277520305e-38
2.346769333 -6.143785477 -1.939202547 2.277520305e-38
2.388549089 -6.138963699 -1.942305684 2.277520305e-38
2.428232431 -6.128574371 -1.943731785 2.277520305e-38
2.459026098 -6.095845222 -1.938141823 2.277520305e-38
2.487982273 -6.059411049 -1.931404233 2.277520305e-38
2.53580308 -6.06881237 -1.939371824 2.277520305e-38
2.573845625 -6.05436182 -1.939800501 2.277520305e-38
2.614905357 -6.046801567 -1.942519546 2.277520305e-38
2.647059441 -6.018756866 -1.938728809 2.277520305e-38
2.683780432 -6.001183987 -1.938387632 2.277520305e-38
2.708934069 -5.958340645 -1.929915071 2.277520305e-38
2.760319233 -5.973036289 -1.94016552 2.277520305e-38
2.836735964 -5.944198608 -1.942047 2.277520305e-38
2.869001627 -5.917336464 -1.939032316 2.277520305e-38
2.917879581 -5.924585819 -1.947286963 2.277520305e-38
2.932963133 -5.863435745 -1.933104873 2.277520305e-38
2.982343674 -5.87110424 -1.941677332 2.277520305e-38
3.024307251 -5.863613605 -1.945351005 2.277520305e-38
3.055252552 -5.834789276 -1.942011595 2.277520305e-38
3.087943077 -5.809541225 -1.939934492 2.277520305e-38
3.143012524 -5.825866222 -1.951829791 2.277520305e-38
3.174236536 -5.797638893 -1.948925972 2.277520305e-38
3.277396679 -5.731067181 -1.946650505 2.277520305e-38
3.296271801 -5.682229996 -1.936944723 2.277520305e-38
3.340545177 -5.677363873 -1.942304254 2.277520305e-38
3.363507986 -5.636365414 -1.935348392 2.277520305e-38
3.413341045 -5.640300751 -1.943906784 2.277520305e-38
3.452979803 -5.626948833 -1.946635246 2.277520305e-38
3.483191729 -5.598199844 -1.944104314 2.277520305e-38
3.539709091 -5.53520155 -1.93729353 2.277520305e-38
3.589104891 -5.536736012 -1.945552588 2.277520305e-38
3.620991945 -5.510955334 -1.944329262 2.277520305e-38
3.660871744 -5.49725008 -1.947434545 2.277520305e-38
3.688172579 -5.464679718 -1.943937063 2.277520305e-38
3.727833748 -5.450452805 -1.947052002 2.277520305e-38
3.745992184 -5.404965401 -1.939033508 2.277520305e-38
3.788111448 -5.394151211 -1.943521738 2.277520305e-38
3.824606895 -5.375149727 -1.945162535 2.277520305e-38
3.847113371 -5.33660841 -1.939791679 2.277520305e-38
3.869639874 -5.298496246 -1.934592247 2.277520305e-38
3.935955524 -5.319895744 -1.951257825 2.277520305e-38
3.957075834 -5.279802799 -1.945495486 2.277520305e-38
3.96542573 -5.223395824 -1.933696985 2.277520305e-38
4.010970116 -5.216013432 -1.940128565 2.277520305e-38
4.11015749 -5.21038723 -1.956787705 2.277520305e-38
4.12023592 -5.157274723 -1.946368933 2.277520305e-38
4.169783115 -5.153605461 -1.95468688 2.277520305e-38
4.184028625 -5.106300354 -1.946520329 2.277520305e-38
4.212574005 -5.076742649 -1.945144057 2.277520305e-38
4.295834541 -4.985918522 -1.94054389 2.277520305e-38
4.337842464 -4.972149849 -1.945598602 2.277520305e-38
4.345133305 -4.918766499 -1.935182095 2.277520305e-38
4.388595581 -4.906507969 -1.940995216 2.277520305e-38
4.417724133 -4.878002167 -1.940493584 2.277520305e-38
4.456597328 -4.860157967 -1.944327354 2.277520305e-38
4.468430042 -4.812949657 -1.936451674 2.277520305e-38
4.535757542 -4.825280666 -1.952663302 2.277520305e-38
4.566241264 -4.797948837 -1.952990294 2.277520305e-38
4.584697723 -4.758047581 -1.948252797 2.277520305e-38
4.597735405 -4.712887287 -1.941370964 2.277520305e-38
4.639138222 -4.696845055 -1.946551681 2.277520305e-38
4.65398407 -4.65396452 -1.940668464 2.277520305e-38
4.683295727 -4.625742912 -1.940925956 2.277520305e-38
4.757135391 -4.640907288 -1.95960331 2.277520305e-38
4.760966778 -4.587526321 -1.949455619 2.277520305e-38
4.774086952 -4.543570518 -1.943289876 2.277520305e-38
4.810837269 -4.52217865 -1.946822286 2.277520305e-38
4.853629112 -4.506164551 -1.9528234 2.277520305e-38
4.871055126 -4.466578484 -1.948687315 2.277520305e-38
4.88312912 -4.422349453 -1.942539573 2.277520305e-38
4.92760849 -4.407498837 -1.949341893 2.277520305e-38
4.983549118 -4.347773075 -1.950050116 2.277520305e-38
5.00136137 -4.309145451 -1.946559668 2.277520305e-38
5.032656193 -4.282176971 -1.948402047 2.277520305e-38
5.044196606 -4.238452911 -1.942669868 2.277520305e-38
5.086873531 -4.220941067 -1.949017167 2.277520305e-38
5.111093998 -4.187947273 -1.948346257 2.277520305e-38
5.156142235 -4.119329929 -1.945936441 2.277520305e-38
5.201150417 -4.102883339 -1.953311086 2.277520305e-38
5.225472927 -4.069890976 -1.95296371 2.277520305e-38
5.220373631 -4.014276981 -1.941741943 2.277520305e-38
5.250899792 -3.986354113 -1.943887115 2.277520305e-38
5.269515514 -3.949324131 -1.941702843 2.277520305e-38
5.340828896 -3.951433897 -1.958931684 2.277520305e-38
5.350991726 -3.90797472 -1.953755498 2.277520305e-38
5.339049816 -3.848850727 -1.940668821 2.277520305e-38
5.374233723 -3.823939085 -1.944823265 2.277520305e-38
5.393345356 -3.787515163 -1.943241358 2.277520305e-38
5.439515591 -3.769926786 -1.951429725 2.277520305e-38
5.449357033 -3.727102995 -1.946654081 2.277520305e-38
5.455856323 -3.682199717 -1.94080627 2.277520305e-38
5.508653164 -3.668472767 -1.951483965 2.277520305e-38
5.522383213 -3.628497362 -1.948360085 2.277520305e-38
5.562604904 -3.605896473 -1.954645634 2.277520305e-38
5.532868862 -3.538198948 -1.936464906 2.277520305e-38
5.572152615 -3.514968634 -1.942576647 2.277520305e-38
5.622172356 -3.498093128 -1.952430248 2.277520305e-38
5.654670715 -3.470011473 -1.956228137 2.277520305e-38
5.650690079 -3.419644833 -1.94749856 2.277520305e-38
5.683716774 -3.391772509 -1.9516083 2.277520305e-38
5.701804161 -3.354926348 -1.950663567 2.277520305e-38
5.699471951 -3.306261063 -1.942831516 2.277520305e-38
5.747163296 -3.28660965 -1.95211935 2.277520305e-38
5.751308918 -3.24194479 -1.946681857 2.277520305e-38
5.81532383 -3.183926105 -1.954872966 2.277520305e-38
5.825351238 -3.142724276 -1.951667309 2.277520305e-38
5.856718063 -3.113048792 -1.955687046 2.277520305e-38
5.85803175 -3.067434788 -1.949755311 2.277520305e-38
5.877505779 -3.031455517 -1.949964404 2.277520305e-38
5.919364452 -2.960932732 -1.951543093 2.277520305e-38
5.92798233 -2.919564486 -1.948400021 2.277520305e-38
5.984115601 -2.901370287 -1.960916162 2.277520305e-38
5.985298634 -2.856348753 -1.955481172 2.277520305e-38
6.004377365 -2.820000648 -1.955971241 2.277520305e-38
5.9839077 -2.765337229 -1.943694472 2.277520305e-38
6.018083096 -2.736095428 -1.949262381 2.277520305e-38
5.855891705 -2.532351255 -1.881187081 2.277520305e-38
5.853906631 -2.488624811 -1.875565648 2.277520305e-38
5.847268105 -2.443215847 -1.868566632 2.277520305e-38
5.857241154 -2.404931068 -1.866964102 2.277520305e-38
6.001519203 -2.420903921 -1.90813911 2.277520305e-38
6.131855011 -2.385753632 -1.940056562 2.277520305e-38
6.170472145 -2.356948376 -1.947625041 2.277520305e-38
6.235171318 -2.337575197 -1.963444352 2.277520305e-38
6.202941895 -2.281849146 -1.948811531 2.277520305e-38
6.248780727 -2.254970074 -1.958801866 2.277520305e-38
6.221950054 -2.201871157 -1.946085215 2.277520305e-38
6.269266605 -2.175106525 -1.95663774 2.277520305e-38
6.271348476 -2.132444859 -1.953135967 2.277520305e-38
6.326282024 -2.064192057 -1.962139368 2.277520305e-38
6.312517643 -2.016601086 -1.953965425 2.277520305e-38
6.320444107 -1.976128936 -1.952596188 2.277520305e-38
6.329710007 -1.9361341 -1.951729417 2.277520305e-38
6.311398506 -1.887949467 -1.942437768 2.277520305e-38
6.350645065 -1.856991291 -1.950951219 2.277520305e-38
6.360276222 -1.817146659 -1.950417876 2.277520305e-38
6.364328384 -1.775821447 -1.948255062 2.277520305e-38
6.377372265 -1.737007737 -1.948918462 2.277520305e-38
6.41732645 -1.705332041 -1.957872391 2.277520305e-38
6.391355515 -1.656189442 -1.946787238 2.277520305e-38
6.413776875 -1.619729996 -1.950524688 2.277520305e-38
6.412425041 -1.577311158 -1.947114348 2.277520305e-38
6.471433163 -1.549427152 -1.962078929 2.277520305e-38
6.437056065 -1.499136567 -1.948809147 2.277520305e-38
6.502924442 -1.429938197 -1.963246942 2.277520305e-38
6.495987892 -1.386398077 -1.958526373 2.277520305e-38
6.493150711 -1.343825817 -1.95512867 2.277520305e-38
6.500602722 -1.303510547 -1.954903603 2.277520305e-38
6.533353329 -1.268115282 -1.96236527 2.277520305e-38
6.505435944 -1.22097826 -1.951672077 2.277520305e-38
6.500023365 -1.178404689 -1.947822809 2.277520305e-38
6.509409904 -1.138570905 -1.948487043 2.277520305e-38
6.519826889 -1.098890781 -1.949538589 2.277520305e-38
6.559103966 -1.063824296 -1.959272385 2.277520305e-38
6.579991341 -1.0255059 -1.963585496 2.277520305e-38
6.543442249 -0.9784106612 -1.950830102 2.277520305e-38
6.590103626 -0.9437343478 -1.962964296 2.277520305e-38
6.562739849 -0.898429215 -1.953127503 2.277520305e-38
6.524431705 -0.8521229029 -1.94012177 2.277520305e-38
6.598052979 -0.8202724457 -1.96046257 2.277520305e-38
6.55229187 -0.7734622359 -1.945401907 2.277520305e-38
6.544604301 -0.7315381169 -1.941745043 2.277520305e-38
6.588886261 -0.6952581406 -1.953570127 2.277520305e-38
6.605208874 -0.6557087898 -1.95716393 2.277520305e-38
6.603298187 -0.6143202782 -1.955439925 2.277520305e-38
6.579555511 -0.5710914731 -1.947324634 2.277520305e-38
6.625882149 -0.5338332653 -1.960025787 2.277520305e-38
6.606743336 -0.4911917746 -1.95342648 2.277520305e-38
6.593445301 -0.4492240846 -1.948633313 2.277520305e-38
6.633422852 -0.4107547998 -1.959663153 2.277520305e-38
6.613039017 -0.3684530854 -1.952927232 2.277520305e-38
6.64347887 -0.3289452791 -1.961279869 2.277520305e-38
6.627319813 -0.2870993912 -1.955949187 2.277520305e-38
6.602952003 -0.2042511404 -1.947857022 2.277520305e-38
6.627581596 -0.1639936119 -1.954790831 2.277520305e-38
6.625612736 -0.122937113 -1.953952551 2.277520305e-38
6.641982079 -0.08216513693 -1.958584547 2.277520305e-38
6.563979626 -0.04059770703 -1.935474873 2.277520305e-38
6.616056919 0 -1.950795174 2.277520305e-38
6.621257782 0.04095184803 -1.952367306 2.277520305e-38
6.62361908 0.0819177255 -1.95317018 2.277520305e-38
6.626198292 0.1229465231 -1.954128742 2.277520305e-38
6.626611233 0.1639667004 -1.954505324 2.277520305e-38
6.631835938 0.2051208317 -1.956381321 2.277520305e-38
6.635035992 0.2463285476 -1.957746387 2.277520305e-38
6.622166157 0.2868676484 -1.954431772 2.277520305e-38
6.62086153 0.3688747287 -1.955241323 2.277520305e-38
6.64282608 0.4113592505 -1.962447882 2.277520305e-38
6.629420757 0.4516524971 -1.959264278 2.277520305e-38
6.632037163 0.4930460751 -1.960906506 2.277520305e-38
6.602333069 0.5319256186 -1.953063965 2.277520305e-38
6.641893864 0.5764861703 -1.965776443 2.277520305e-38
6.572512627 0.6114341021 -1.946321964 2.277520305e-38
6.599317551 0.6551184058 -1.955425382 2.277520305e-38
6.56687212 0.6929402351 -1.947041631 2.277520305e-38
6.62498188 0.7405025363 -1.965594053 2.277520305e-38
6.560133457 0.774379611 -1.947728515 2.277520305e-38
6.570456028 0.8168273568 -1.952264071 2.277520305e-38
6.56360817 0.8572334647 -1.95176363 2.277520305e-38
6.576496601 0.9003218412 -1.957222462 2.277520305e-38
6.530381203 0.9351843596 -1.945178509 2.277520305e-38
6.538348198 0.9776220918 -1.949311733 2.277520305e-38
6.542937756 1.019710064 -1.952519774 2.277520305e-38
6.534645557 1.05985105 -1.951966405 2.277520305e-38
6.559558392 1.105566144 -1.961409926 2.277520305e-38
6.51683569 1.181433558 -1.952856898 2.277520305e-38
6.471607685 1.256089211 -1.943814039 2.277520305e-38
6.460730553 1.295526624 -1.942916274 2.277520305e-38
6.508606434 1.347017765 -1.959776521 2.277520305e-38
6.529143333 1.39342165 -1.968525052 2.277520305e-38
6.450676918 1.460317969 -1.950159073 2.277520305e-38
6.449098587 1.50196898 -1.952457786 2.277520305e-38
6.429813862 1.539459109 -1.949465036 2.277520305e-38
6.440435886 1.584176302 -1.955614805 2.277520305e-38
6.418001652 1.620803833 -1.951812744 2.277520305e-38
6.407595158 1.660425901 -1.951733112 2.277520305e-38
6.405427933 1.702180505 -1.954237819 2.277520305e-38
6.408075809 1.745381594 -1.958292842 2.277520305e-38
6.366723537 1.776467681 -1.948981404 2.277520305e-38
6.379470348 1.822633028 -1.95629847 2.277520305e-38
6.368061066 1.862052679 -1.956297994 2.277520305e-38
6.364645004 1.903870463 -1.958823442 2.277520305e-38
6.328299046 1.935694575 -1.951287985 2.277520305e-38
6.320654869 1.976203084 -1.952668667 2.277520305e-38
6.314987659 2.01738286 -1.954738498 2.277520305e-38
6.288767815 2.051955223 -1.950502157 2.277520305e-38
6.273139954 2.089850664 -1.94963038 2.277520305e-38
6.258343697 2.128013134 -1.949086428 2.277520305e-38
6.234673977 2.163104057 -1.94584918 2.277520305e-38
6.248193264 2.211185455 -1.954290271 2.277520305e-38
6.220221043 2.244627237 -1.949841022 2.277520305e-38
6.191242695 2.277544022 -1.945140958 2.277520305e-38
6.184210777 2.318462849 -1.947397113 2.277520305e-38
6.189387798 2.364160061 -1.953590274 2.277520305e-38
6.147900105 2.391982794 -1.945128441 2.277520305e-38
6.165834427 2.443000317 -1.955557585 2.277520305e-38
6.141492367 2.477372169 -1.952652454 2.277520305e-38
6.126278877 2.515380621 -1.952716231 2.277520305e-38
6.102780342 2.549988031 -1.950219631 2.277520305e-38
6.08152914 2.585413456 -1.948498249 2.277520305e-38
6.073494911 2.626431942 -1.951094627 2.277520305e-38
6.062718868 2.666401863 -1.952890396 2.277520305e-38
6.037962914 2.70019269 -1.95025599 2.277520305e-38
5.949707031 2.704993963 -1.927114129 2.277520305e-38
5.852668762 2.704696417 -1.901065469 2.277520305e-38
5.705402851 2.722771645 -1.864033103 2.277520305e-38
5.629603863 2.729473591 -1.844748259 2.277520305e-38
5.519263268 2.718279362 -1.814081788 2.286703854e-38
5.508465767 2.755381823 -1.816076875 2.286703854e-38
5.449025631 2.767938614 -1.802094936 2.286703854e-38
5.396419048 2.783321142 -1.79035449 2.286703854e-38
5.394271851 2.824566603 -1.79539156 2.286703854e-38
5.365763187 2.852059841 -1.791742682 2.286703854e-38
5.354617596 2.88875699 -1.793952227 2.286703854e-38
5.307151318 2.948467255 -1.790133357 2.286703854e-38
5.304139137 3.033261538 -1.80163753 2.286703854e-38
5.276196957 3.060731649 -1.798545361 2.286703854e-38
5.228464127 3.076415777 -1.788720489 2.286703854e-38
5.209084034 3.152360678 -1.795289755 2.286703854e-38
5.206404686 3.194920301 -1.80115068 2.286703854e-38
5.1804986 3.267894268 -1.806035638 2.286703854e-38
5.114294052 3.270504236 -1.789964914 2.286703854e-38
5.1527071 3.340165854 -1.810610056 2.286703854e-38
5.097692966 3.34945941 -1.798521876 2.286703854e-38
5.093369484 3.39187789 -1.804361582 2.286703854e-38
5.057366848 3.413248777 -1.799049973 2.286703854e-38
5.000795364 3.420296431 -1.786423087 2.286703854e-38
4.991259575 3.45923996 -1.790611625 2.286703854e-38
4.884009361 3.613439322 -1.791378021 2.286703854e-38
4.85449028 3.638274908 -1.788769007 2.286703854e-38
4.842940331 3.676610947 -1.792860031 2.286703854e-38
4.844615936 3.725335121 -1.801974177 2.286703854e-38
4.768026352 3.713587761 -1.781998158 2.286703854e-38
4.759932995 3.802809715 -1.796414375 2.286703854e-38
4.720286846 3.81919241 -1.790334821 2.286703854e-38
4.716003418 3.864231825 -1.797740936 2.286703854e-38
4.661231518 3.86777544 -1.785946131 2.286703854e-38
4.670974255 3.924864769 -1.798928499 2.286703854e-38
4.648792744 3.95553422 -1.799778223 2.286703854e-38
4.595573425 3.959547043 -1.788625598 2.286703854e-38
4.618278027 4.029086113 -1.80711627 2.286703854e-38
4.563683987 4.031473637 -1.795480967 2.286703854e-38
4.557393551 4.076320648 -1.802888632 2.286703854e-38
4.506750107 4.081503868 -1.792813659 2.286703854e-38
4.425901413 4.109038353 -1.780724764 2.286703854e-38
4.407531738 4.143053532 -1.783614874 2.286703854e-38
4.37644577 4.165075302 -1.7814188 2.286703854e-38
4.392850876 4.232765675 -1.798722386 2.286703854e-38
4.37136507 4.264545441 -1.800689936 2.286703854e-38
4.324791431 4.271567822 -1.792341828 2.286703854e-38
4.303421497 4.303421497 -1.794490695 2.286703854e-38
4.283467293 4.336765766 -1.797326446 2.286703854e-38
4.266182899 4.37302494 -1.801375389 2.286703854e-38
4.235619068 4.395781994 -1.799925447 2.286703854e-38
4.197908878 4.410913944 -1.795459509 2.286703854e-38
4.182537079 4.449531555 -1.800611377 2.286703854e-38
4.108235836 4.480268478 -1.79234314 2.286703854e-38
4.077489853 4.502305984 -1.791042209 2.286703854e-38
4.068648338 4.548735619 -1.799481153 2.286703854e-38
4.033764839 4.566308022 -1.796518564 2.286703854e-38
4.006604195 4.592489243 -1.797031403 2.286703854e-38
3.976204395 4.614893913 -1.796151519 2.286703854e-38
3.932515144 4.621698856 -1.789293051 2.286703854e-38
3.924401522 4.670328617 -1.798703194 2.286703854e-38
3.898723602 4.698535442 -1.800233841 2.286703854e-38
3.803119183 4.700433254 -1.782791615 2.286703854e-38
3.798403502 4.754419327 -1.79432559 2.286703854e-38
3.752080441 4.756432533 -1.786306143 2.286703854e-38
3.732944012 4.792829514 -1.791272283 2.286703854e-38
3.713744164 4.829494953 -1.796354413 2.286703854e-38
3.683198214 4.851610661 -1.796073198 2.286703854e-38
3.630325794 4.843859673 -1.784859776 2.286703854e-38
3.611089468 4.880796432 -1.790204048 2.286703854e-38
3.582140923 4.904860497 -1.790861726 2.286703854e-38
3.562828779 4.942302227 -1.796459913 2.286703854e-38
3.527676582 4.957855701 -1.794150352 2.286703854e-38
3.492323637 4.972942829 -1.791768551 2.286703854e-38
3.460532665 4.993070126 -1.791270375 2.286703854e-38
3.417663574 4.996956348 -1.785050511 2.286703854e-38
3.406627417 5.047528267 -1.795558095 2.286703854e-38
3.373706579 5.066071033 -1.794692755 2.286703854e-38
3.335832119 5.07695055 -1.791205525 2.286703854e-38
3.279138327 5.127771854 -1.794688344 2.286703854e-38
3.250969648 5.153572083 -1.796651959 2.286703854e-38
3.232523441 5.19533205 -1.804202676 2.286703854e-38
3.179207325 5.180764198 -1.792282581 2.286703854e-38
3.15794754 5.218220234 -1.798455596 2.286703854e-38
3.096773386 5.189325809 -1.781859279 2.286703854e-38
3.079705477 5.2340312 -1.790629745 2.286703854e-38
3.040103436 5.240622044 -1.786416054 2.286703854e-38
2.998575211 5.243467331 -1.781038642 2.286703854e-38
2.979583263 5.285840988 -1.789136648 2.286703854e-38
2.933796406 5.280709267 -1.781219006 2.286703854e-38
2.877586126 5.333913803 -1.78702724 2.286703854e-38
2.838566303 5.340331554 -1.783264399 2.286703854e-38
2.765191793 5.361304283 -1.778702378 2.286703854e-38
2.749551296 5.412880898 -1.790133715 2.286703854e-38
2.724582195 5.446869373 -1.795777559 2.286703854e-38
2.676055431 5.43355608 -1.78589642 2.286703854e-38
2.655170441 5.476341248 -1.794527411 2.286703854e-38
2.613730192 5.476897717 -1.789379478 2.286703854e-38
2.580582619 5.494625568 -1.789917946 2.286703854e-38
2.537750959 5.491440773 -1.783735991 2.286703854e-38
2.502269983 5.503743649 -1.782667518 2.286703854e-38
2.469673872 5.522383213 -1.783726811 2.286703854e-38
2.451769114 5.574600697 -1.795663714 2.286703854e-38
2.4155159 5.585673332 -1.794386744 2.286703854e-38
2.36696291 5.567678452 -1.783865452 2.286703854e-38
2.320460796 5.553431988 -1.774665117 2.286703854e-38
2.314604044 5.637177467 -1.796819448 2.286703854e-38
2.270148993 5.627714157 -1.789294004 2.286703854e-38
2.232297182 5.634104729 -1.786901832 2.286703854e-38
2.196317434 5.644888878 -1.785991073 2.286703854e-38
2.154966354 5.641670227 -1.780713201 2.286703854e-38
1.957408309 5.221054554 -1.644097209 2.286703854e-38
1.863188982 5.163197041 -1.618496776 2.286703854e-38
1.828613043 5.167185783 -1.616167545 2.286703854e-38
1.801070452 5.191143513 -1.620153308 2.286703854e-38
1.957245946 5.756102562 -1.792668939 2.286703854e-38
1.90840435 5.728465557 -1.780349255 2.286703854e-38
1.879599571 5.760611534 -1.786687613 2.286703854e-38
1.837600589 5.752275944 -1.780548215 2.286703854e-38
1.771780133 5.792393208 -1.78604126 2.286703854e-38
1.736268759 5.804328442 -1.78637886 2.286703854e-38
1.65254426 5.784127712 -1.773732185 2.286703854e-38
1.628053308 5.834682465 -1.786118984 2.286703854e-38
1.586831331 5.825877666 -1.780388474 2.286703854e-38
1.551831961 5.839599133 -1.781608462 2.286703854e-38
1.516562343 5.852474689 -1.782643199 2.286703854e-38
1.483355045 5.873654842 -1.786265135 2.286703854e-38
1.436744094 5.841005325 -1.773601174 2.286703854e-38
1.182831526 5.078722954 -1.53757143 2.295887404e-38
1.14898169 5.075219631 -1.534331083 2.295887404e-38
1.106948972 5.033896446 -1.519738436 2.295887404e-38
1.078704 5.054199219 -1.523829818 2.295887404e-38
1.042722464 5.03804493 -1.516982317 2.295887404e-38
1.012249708 5.047986507 -1.518060803 2.295887404e-38
0.9779854417 5.038507938 -1.513363004 2.295887404e-38
0.9497229457 5.060028076 -1.518033385 2.295887404e-38
0.9173636436 5.059959888 -1.516279936 2.295887404e-38
0.8829467893 5.047785759 -1.510969162 2.295887404e-38
0.8512328863 5.050410271 -1.510151386 2.295887404e-38
0.8200182319 5.05571413 -1.51019311 2.295887404e-38
0.7900705934 5.069335938 -1.512772083 2.295887404e-38
0.7554020882 5.051989079 -1.506172895 2.295887404e-38
0.723513484 5.052229404 -1.504877806 2.295887404e-38
0.6943678856 5.071883678 -1.509426832 2.295887404e-38
0.6657671928 5.097573757 -1.515815854 2.295887404e-38
0.6319957972 5.083374023 -1.510404706 2.295887404e-38
0.5989313126 5.073726654 -1.506410956 2.295887404e-38
0.5663504004 5.066512585 -1.503198981 2.295887404e-38
0.5057013035 5.093934059 -1.509361744 2.295887404e-38
0.4747965634 5.103429317 -1.511279225 2.295887404e-38
0.4435572624 5.109991074 -1.512379646 2.295887404e-38
0.4125545919 5.120441914 -1.514690876 2.295887404e-38
0.380777359 5.121121883 -1.514161468 2.295887404e-38
0.4083674252 5.993690491 -1.771387458 2.286703854e-38
0.3723468482 6.012763023 -1.776313901 2.286703854e-38
0.3375790417 6.058635712 -1.789208174 2.286703854e-38
0.2992900908 6.04419136 -1.784362197 2.286703854e-38
0.2597003877 5.994914055 -1.769307733 2.286703854e-38
0.2252279967 6.066363811 -1.78995204 2.286703854e-38
0.1862075031 6.019390583 -1.775715947 2.286703854e-38
0.1493861079 6.037899971 -1.780873895 2.286703854e-38
0.112643145 6.070270538 -1.790181398 2.286703854e-38
0.07468292862 6.039170265 -1.780839801 2.286703854e-38
0.03699014336 5.985408306 -1.764880776 2.286703854e-38
-0.03731594607 6.037247181 -1.780166864 2.286703854e-38
-0.07420550287 5.997245312 -1.768478155 2.286703854e-38
-0.1117269397 6.021436214 -1.775776029 2.286703854e-38
-0.1493819654 6.038184643 -1.780954599 2.286703854e-38
-0.1865978837 6.03268671 -1.779636145 2.286703854e-38
-0.2241731733 6.039012909 -1.781881094 2.286703854e-38
-0.2619175911 6.046728134 -1.784600258 2.286703854e-38
-0.3742476106 6.044508934 -1.785687327 2.286703854e-38
-0.4095405936 6.011026859 -1.776514649 2.286703854e-38
-0.4473620355 6.017264843 -1.779136181 2.286703854e-38
-0.4858594239 6.030444145 -1.783888817 2.286703854e-38
-0.5201898217 5.993442059 -1.773869991 2.286703854e-38
-0.5605220795 6.025259495 -1.784272075 2.286703854e-38
-0.6307764649 5.977996349 -1.772448182 2.286703854e-38
-0.6710782051 6.00374794 -1.781284094 2.286703854e-38
-0.703576684 5.960302353 -1.769651413 2.286703854e-38
-0.7440876961 5.985319614 -1.778407812 2.286703854e-38
-0.7819225788 5.987012863 -1.78031826 2.286703854e-38
-0.8207655549 5.995387554 -1.784278154 2.286703854e-38
-0.8574656248 5.987880707 -1.783590913 2.286703854e-38
-0.9637326002 5.941774845 -1.774870634 2.286703854e-38
-0.9988617301 5.926379204 -1.772083759 2.286703854e-38
-1.038269043 5.935987473 -1.776839852 2.286703854e-38
-1.075116634 5.930309772 -1.777096272 2.286703854e-38
-1.110722303 5.918108463 -1.775467277 2.286703854e-38
-1.140410542 5.875516415 -1.764776826 2.286703854e-38
-1.219443917 5.892208099 -1.774175763 2.286703854e-38
-1.289368749 5.86358881 -1.770222425 2.286703854e-38
-1.334526896 5.895033836 -1.78218317 2.286703854e-38
-1.36599195 5.865355492 -1.77572608 2.286703854e-38
-1.408054709 5.880990028 -1.78306663 2.286703854e-38
-1.427435279 5.803221703 -1.762127757 2.286703854e-38
-1.468637466 5.815405369 -1.768558145 2.286703854e-38
-1.50429523 5.805222511 -1.768249631 2.286703854e-38
-1.545998454 5.817711353 -1.774935484 2.286703854e-38
-1.578500509 5.795423508 -1.771075487 2.286703854e-38
-1.61377275 5.783622265 -1.770484924 2.286703854e-38
-1.645650268 5.759999275 -1.766333818 2.286703854e-38
-1.688990355 5.776146412 -1.774457812 2.286703854e-38
-1.724708557 5.765717506 -1.774498582 2.286703854e-38
-1.752297878 5.728710175 -1.766417623 2.286703854e-38
-1.795416236 5.742564201 -1.774073482 2.286703854e-38
-1.836966991 5.750284672 -1.779927492 2.286703854e-38
-1.700062752 5.210391521 -1.616038561 2.286703854e-38
-1.734719872 5.207144737 -1.618324041 2.286703854e-38
-1.770743966 5.207772255 -1.621894717 2.286703854e-38
-1.814646959 5.230484962 -1.632431865 2.286703854e-38
-1.998313546 5.646815777 -1.766192555 2.286703854e-38
-2.038717747 5.649629116 -1.770980358 2.286703854e-38
-2.072010756 5.632565975 -1.769613743 2.286703854e-38
-2.137330294 5.595582008 -1.76616466 2.286703854e-38
-2.184320688 5.614085197 -1.776241779 2.286703854e-38
-2.21456027 5.589289188 -1.772685885 2.286703854e-38
-2.244285822 5.563621521 -1.768922687 2.286703854e-38
-2.281940699 5.557653427 -1.771470904 2.286703854e-38
-2.320787907 5.55424881 -1.774926901 2.286703854e-38
-2.340945005 5.506511211 -1.764266372 2.286703854e-38
-2.427743912 5.519977093 -1.778070569 2.286703854e-38
-2.454996586 5.4896245 -1.773153067 2.286703854e-38
-2.490690708 5.47834444 -1.774450064 2.286703854e-38
-2.515985489 5.444371223 -1.7684412 2.286703854e-38
-2.549730062 5.428924561 -1.768517256 2.286703854e-38
-2.583399057 5.413392067 -1.768630266 2.286703854e-38
-2.615787745 5.395081043 -1.767897964 2.286703854e-38
-2.664381981 5.409836769 -1.778101563 2.286703854e-38
-2.688379765 5.374510288 -1.771915555 2.286703854e-38
-2.720732212 5.356151581 -1.771381021 2.286703854e-38
-2.73272872 5.29833889 -1.757813334 2.286703854e-38
-2.78349781 5.315835953 -1.769296408 2.286703854e-38
-2.809475899 5.285624981 -1.764996529 2.286703854e-38
-2.851775646 5.286061764 -1.77098906 2.286703854e-38
-2.88564229 5.27059412 -1.771762371 2.286703854e-38
-2.909515142 5.236990452 -1.766483784 2.286703854e-38
-2.966004133 5.261756897 -1.78098619 2.286703854e-38
-2.98351717 5.217108727 -1.772080302 2.286703854e-38
-3.034690619 5.23128891 -1.78324604 2.286703854e-38
-3.028665066 5.147334576 -1.76097405 2.286703854e-38
-3.090886593 5.179506302 -1.778488159 2.286703854e-38
-3.112956285 5.14395237 -1.772853017 2.286703854e-38
-3.128232002 5.097714424 -1.763554811 2.286703854e-38
-3.190270901 5.127428055 -1.780616999 2.286703854e-38
-3.204497099 5.079997063 -1.770993829 2.286703854e-38
-3.234517097 5.058042049 -1.770274282 2.286703854e-38
-3.279983282 5.059898376 -1.777993202 2.286703854e-38
-3.2814641 4.994245529 -1.762019992 2.286703854e-38
-3.341911554 5.018339157 -1.777773023 2.286703854e-38
-3.372574806 4.997100353 -1.777608633 2.286703854e-38
-3.398272753 4.968658924 -1.774934411 2.286703854e-38
-3.44670105 4.9731493 -1.784123302 2.286703854e-38
-3.427191734 4.880256653 -1.758362532 2.286703854e-38
-3.479992867 4.890880108 -1.769916058 2.286703854e-38
-3.496369839 4.850119114 -1.762952685 2.286703854e-38
-3.542287827 4.850306034 -1.770943284 2.286703854e-38
-3.554916382 4.804877758 -1.762362957 2.286703854e-38
-3.595757246 4.79775095 -1.767861485 2.286703854e-38
-3.616695404 4.764009953 -1.763639569 2.286703854e-38
-3.638721228 4.73196888 -1.76007688 2.286703854e-38
-3.672415018 4.715149879 -1.762243629 2.286703854e-38
-3.695446253 4.684691906 -1.759354353 2.286703854e-38
-3.724985123 4.662528038 -1.759656787 2.286703854e-38
-3.75863719 4.645452976 -1.761945248 2.286703854e-38
-3.773445606 4.605237007 -1.755503893 2.286703854e-38
-3.824619055 4.609209061 -1.766003609 2.286703854e-38
-3.86025691 4.59403801 -1.769315839 2.286703854e-38
-3.885861874 4.5668993 -1.768075943 2.286703854e-38
-3.916956902 4.546168804 -1.769394755 2.286703854e-38
-3.963939428 4.487226963 -1.765419126 2.286703854e-38
-4.000233173 4.472284794 -1.769233465 2.286703854e-38
-4.018388271 4.437064171 -1.765086889 2.286703854e-38
-4.041863441 4.407893658 -1.763394237 2.286703854e-38
-4.065320492 4.378813267 -1.761782646 2.286703854e-38
-4.09034586 4.351463795 -1.760925889 2.286703854e-38
-4.13985157 4.296396732 -1.759235382 2.286703854e-38
-4.169485569 4.273919582 -1.760552764 2.286703854e-38
-4.21155262 4.263967037 -1.767143011 2.286703854e-38
-4.258844852 4.258825302 -1.775903583 2.286703854e-38
-4.270340443 4.217860699 -1.769793272 2.286703854e-38
-4.297251225 4.19224453 -1.770163059 2.286703854e-38
-4.33190918 4.174099445 -1.773780704 2.286703854e-38
-4.339125156 4.12959528 -1.766240597 2.286703854e-38
-4.369359493 4.107186794 -1.768166184 2.286703854e-38
-4.358139038 4.046162128 -1.753468871 2.286703854e-38
-4.422386646 4.055176735 -1.769192219 2.286703854e-38
-4.419390202 4.002401352 -1.75805831 2.286703854e-38
-4.473111629 4.000941277 -1.769546866 2.286703854e-38
-4.494023323 3.969923496 -1.768085241 2.286703854e-38
-4.51969862 3.943120003 -1.768556356 2.286703854e-38
-4.541236401 3.912699699 -1.767473102 2.286703854e-38
-4.563715458 3.883161306 -1.766848922 2.286703854e-38
-4.571724415 3.8414886 -1.760718226 2.286703854e-38
-4.588638306 3.807543516 -1.758129835 2.286703854e-38
-4.631584167 3.795087576 -1.765565276 2.286703854e-38
-4.642858982 3.756551743 -1.760972261 2.286703854e-38
-4.657215595 3.720743179 -1.757654309 2.286703854e-38
-4.693201542 3.702171564 -1.762557745 2.286703854e-38
-4.723435402 3.678869963 -1.765336394 2.286703854e-38
-4.750188351 3.652739525 -1.766859293 2.286703854e-38
-4.766845703 3.61883688 -1.764695168 2.286703854e-38
-4.812402725 3.60673666 -1.773264885 2.286703854e-38
-4.80479002 3.55483079 -1.762333155 2.286703854e-38
-4.808654785 3.511868477 -1.75574851 2.286703854e-38
-4.850153446 3.49643445 -1.762973189 2.286703854e-38
-4.864994049 3.461625338 -1.760549903 2.286703854e-38
-4.891872406 3.435371161 -1.762555718 2.286703854e-38
-4.918135643 3.408575535 -1.764379621 2.286703854e-38
-4.914377213 3.361154318 -1.755547166 2.286703854e-38
-4.949402332 3.340372324 -1.760648012 2.286703854e-38
-4.98316288 3.318519831 -1.765327454 2.286703854e-38
-5.005363941 3.288799524 -1.765945315 2.286703854e-38
-4.985568523 3.231855392 -1.751883984 2.286703854e-38
-5.007480145 3.202242613 -1.752586365 2.286703854e-38
-5.035601139 3.176526546 -1.755522609 2.286703854e-38
-5.074556351 3.157375813 -1.762259603 2.286703854e-38
-5.063288212 3.107111931 -1.751637578 2.286703854e-38
-5.075311661 3.071423054 -1.749190927 2.286703854e-38
-5.129004478 3.060754538 -1.761136889 2.286703854e-38
-5.178989887 3.047309637 -1.77180016 2.286703854e-38
-5.18346405 3.006958961 -1.766939759 2.286703854e-38
-5.201268196 2.974435091 -1.766695023 2.286703854e-38
-5.217179298 2.856424093 -1.753801465 2.286703854e-38
-5.225748062 2.819150448 -1.750727057 2.286703854e-38
-5.285104275 2.809215784 -1.764821172 2.286703854e-38
-5.380442619 2.817351818 -1.790804625 2.286703854e-38
-5.450166702 2.811073303 -1.808188796 2.286703854e-38
-5.529759407 2.808928013 -1.828794956 2.277520305e-38
-5.634593964 2.818501234 -1.85766232 2.277520305e-38
-5.701294899 2.807900906 -1.873895049 2.277520305e-38
-5.801033974 2.812574863 -1.900918841 2.277520305e-38
-5.86482811 2.798866987 -1.91612041 2.277520305e-38
-5.863156319 2.753702164 -1.909987569 2.277520305e-38
-5.863148212 2.70954299 -1.904468417 2.277520305e-38
-5.89000845 2.677875996 -1.907785535 2.277520305e-38
-5.924790859 2.649605751 -1.913705826 2.277520305e-38
-5.928389549 2.607321501 -1.909631252 2.277520305e-38
-5.952077866 2.573925972 -1.912089348 2.277520305e-38
-5.970834255 2.538329124 -1.91303575 2.277520305e-38
-5.957288265 2.489170551 -1.903730631 2.277520305e-38
-5.977432251 2.454285622 -1.905274153 2.277520305e-38
-5.999941826 2.420295238 -1.907649517 2.277520305e-38
-5.9593606 2.361196756 -1.890065312 2.277520305e-38
-6.011474133 2.33890748 -1.901968598 2.277520305e-38
-6.024319172 2.301151276 -1.901494384 2.277520305e-38
-6.082528114 2.280265093 -1.915306687 2.277520305e-38
-6.082684994 2.237623453 -1.911040187 2.277520305e-38
-6.085877895 2.196174622 -1.907750964 2.277520305e-38
-6.101121902 2.159111977 -1.90829432 2.277520305e-38
-6.107834339 2.11908555 -1.906246543 2.277520305e-38
-6.151192665 2.049256802 -1.911742568 2.277520305e-38
-6.176348209 2.015296459 -1.915640593 2.277520305e-38
-6.165758133 1.969712973 -1.908543587 2.277520305e-38
-6.155330181 1.924512029 -1.901585817 2.277520305e-38
-6.216005325 1.859392405 -1.913089633 2.277520305e-38
-6.222626686 1.819524169 -1.911623597 2.277520305e-38
-6.275011539 1.709151506 -1.917641759 2.277520305e-38
-6.266743183 1.623896003 -1.908829451 2.277520305e-38
-6.25197506 1.578871846 -1.901324987 2.277520305e-38
-6.286387444 1.546286106 -1.908848882 2.277520305e-38
-6.315075397 1.429643273 -1.909172535 2.277520305e-38
-6.290823936 1.383312702 -1.899221778 2.277520305e-38
-6.345511913 1.354261518 -1.913163781 2.277520305e-38
-6.332862377 1.310669184 -1.906870484 2.277520305e-38
-6.351649761 1.273754597 -1.910266876 2.277520305e-38
-6.332558632 1.229066133 -1.901969194 2.277520305e-38
-6.405106544 1.202133536 -1.921544194 2.277520305e-38
-6.371690273 1.155109048 -1.909374952 2.277520305e-38
-6.403617382 1.120044231 -1.9168154 2.277520305e-38
-6.37279892 1.074155569 -1.905637503 2.277520305e-38
-6.391105175 1.036595464 -1.909092426 2.277520305e-38
-6.423543453 0.960446775 -1.915089965 2.277520305e-38
-6.380170345 0.9136672616 -1.900435925 2.277520305e-38
-6.435927868 0.8810542226 -1.915386081 2.277520305e-38
-6.385518551 0.8339726925 -1.898811817 2.277520305e-38
-6.40418148 0.7961506248 -1.902863264 2.277520305e-38
-6.423041821 0.75820297 -1.907025695 2.277520305e-38
-6.459409237 0.6816090345 -1.915189028 2.277520305e-38
-6.41646719 0.5969141722 -1.900120854 2.277520305e-38
-6.416388035 0.5569098592 -1.89903903 2.277520305e-38
-6.447062016 0.5194291472 -1.907131672 2.277520305e-38
-6.424155235 0.4776216447 -1.899443626 2.277520305e-38
-6.481520653 0.4416037202 -1.915562034 2.277520305e-38
-6.456634998 0.3998095691 -1.907438278 2.277520305e-38
-6.487480164 0.3614559472 -1.915854812 2.277520305e-38
-6.454405308 0.3195958734 -1.905471206 2.277520305e-38
-6.442071915 0.2790586948 -1.901273727 2.277520305e-38
-6.470396519 0.2401972562 -1.909156561 2.277520305e-38
-6.470469952 0.2001196593 -1.908783197 2.277520305e-38
-6.465590477 0.1599791795 -1.907013416 2.277520305e-38
-6.499299526 0.0803886652 -1.91651392 2.277520305e-38
-6.487949848 0.04012196139 -1.913057804 2.277520305e-38
-6.320895672 0 -1.915274382 2.277520305e-38
-6.279760838 -0.03884400055 -1.902841806 2.277520305e-38
-6.323172569 -0.07821005583 -1.916106224 2.277520305e-38
-6.299893379 -0.1169045568 -1.90923965 2.277520305e-38
-6.302476406 -0.1559639573 -1.910275936 2.277520305e-38
-6.324818611 -0.1956463307 -1.917386532 2.277520305e-38
-6.293967724 -0.2336711735 -1.908431053 2.277520305e-38
-6.297266483 -0.2727813423 -1.909906387 2.277520305e-38
-6.282123089 -0.3110697567 -1.905859947 2.277520305e-38
-6.281623363 -0.3500020504 -1.906326532 2.277520305e-38
-6.301442146 -0.3901869655 -1.913034081 2.277520305e-38
-6.271270752 -0.4272380769 -1.904642344 2.277520305e-38
-6.259097099 -0.4653398991 -1.901783824 2.277520305e-38
-6.287031651 -0.5065553784 -1.911186814 2.277520305e-38
-6.292477131 -0.5853794813 -1.914894104 2.277520305e-38
-6.255173683 -0.6209569573 -1.904671788 2.277520305e-38
-6.245787621 -0.6590869427 -1.903020978 2.277520305e-38
-6.253147602 -0.698988378 -1.906545877 2.277520305e-38
-6.275844574 -0.7408309579 -1.914821029 2.277520305e-38
-6.264913082 -0.7788667679 -1.912925243 2.277520305e-38
-6.208811283 -0.8108940721 -1.897289872 2.277520305e-38
-6.253984451 -0.8561758995 -1.912680268 2.277520305e-38
-6.212249756 -0.8896378279 -1.901561379 2.277520305e-38
-6.21079874 -0.9286595583 -1.9028368 2.277520305e-38
-6.215291977 -1.008078218 -1.907888412 2.277520305e-38
-6.23306942 -1.050550342 -1.91530025 2.277520305e-38
-6.212226868 -1.086579084 -1.910926938 2.277520305e-38
-6.209856987 -1.125813484 -1.912299752 2.277520305e-38
-6.192374229 -1.162210345 -1.909083366 2.277520305e-38
-6.172264099 -1.198000073 -1.905140162 2.277520305e-38
-6.150757313 -1.233344674 -1.900816441 2.277520305e-38
-6.175485611 -1.27811408 -1.910873652 2.277520305e-38
-6.147657871 -1.312049389 -1.904734373 2.277520305e-38
-6.182898521 -1.359564543 -1.918212771 2.277520305e-38
-6.131237507 -1.388036013 -1.904821992 2.277520305e-38
-6.099359989 -1.420524478 -1.897616029 2.277520305e-38
-6.115787506 -1.50431931 -1.908369064 2.277520305e-38
-6.12133503 -1.545906544 -1.913040996 2.277520305e-38
-6.093736172 -1.579082727 -1.907426953 2.277520305e-38
-6.09189558 -1.618860364 -1.909956932 2.277520305e-38
-6.09412384 -1.659905314 -1.913835287 2.277520305e-38
-6.059457779 -1.690766573 -1.906194687 2.277520305e-38
-6.048856258 -1.728199959 -1.906179547 2.277520305e-38
-6.038394451 -1.765668392 -1.90628922 2.277520305e-38
-6.044218063 -1.808017373 -1.91161859 2.277520305e-38
-5.990194798 -1.832305193 -1.898085475 2.277520305e-38
