# .PCD v0.7 - Point Cloud Data file format
VERSION 0.7
FIELDS x y z rgb
SIZE 4 4 4 4
TYPE F F F F
COUNT 1 1 1 1
WIDTH 1200
HEIGHT 1
VIEWPOINT 0 0 0 1 0 0 0
POINTS 1200
DATA ascii
13.431673 17.890196 -1.192957 0.000000
134.884003 21.638775 -1.006330 0.000000
15.909554 17.235758 -1.611854 0.000000
12.503136 16.809916 -1.474884 0.000000
30.213934 -27.134237 -0.129694 0.000000
21.679960 -32.644707 0.786870 0.000000
10.286855 5.396418 1.114252 0.000000
21.791721 10.686947 -1.847362 0.000000
6.314841 -2.788073 -0.443081 0.000000
8.172705 8.507523 1.143962 0.000000
27.739681 38.199768 4.038582 0.000000
31.065374 -6.517463 -1.269755 0.000000
15.761427 23.412424 1.564633 0.000000
76.101555 -27.970182 0.555696 0.000000
28.837240 -22.121840 -1.847401 0.000000
9.871984 10.547949 -1.798787 0.000000
70.447273 -47.526695 10.453681 0.000000
7.176139 7.364083 0.784378 0.000000
41.158501 12.494598 -1.113301 0.000000
16.129831 23.066298 1.920877 0.000000
134.871429 18.218145 1.780187 0.000000
137.805511 94.542564 2.602705 0.000000
30.741447 -1.252737 -2.036734 0.000000
21.939190 -31.617012 0.606553 0.000000
68.178032 -51.238869 9.145375 0.000000
17.838198 17.308350 -1.532211 0.000000
8.107631 2.222532 -1.958113 0.000000
108.156281 -30.427694 1.292914 0.000000
31.810946 -6.455563 -1.554451 0.000000
34.622013 12.307876 -1.733935 0.000000
33.734627 11.125044 -0.772664 0.000000
21.939381 3.841194 -1.853853 0.000000
70.271278 -71.444740 13.181257 0.000000
35.332115 -24.131338 -1.605920 0.000000
134.998581 13.852904 -1.135288 0.000000
60.889496 -36.443920 6.816708 0.000000
8.636085 7.170338 0.474171 0.000000
26.762783 37.143764 2.048550 0.000000
6.694191 9.985881 0.261783 0.000000
29.337709 -3.483033 -2.030773 0.000000
95.206573 -43.540939 4.892561 0.000000
9.698497 5.712608 0.979399 0.000000
26.316689 -2.117654 -2.021016 0.000000
37.271904 26.136448 -1.347263 0.000000
8.744647 4.983153 -1.519125 0.000000
109.253456 -27.392220 5.462309 0.000000
6.025663 -3.881696 -0.334246 0.000000
105.917526 -47.376144 15.264874 0.000000
42.938244 -26.951109 -0.130131 0.000000
8.488490 8.725251 1.623894 0.000000
15.577125 8.139650 0.129456 0.000000
59.962318 -34.725567 4.327672 0.000000
134.599106 14.552648 0.779061 0.000000
10.321754 8.573814 -1.805045 0.000000
19.530313 4.930739 -1.428141 0.000000
15.740002 21.728596 -0.094048 0.000000
7.942153 -6.240754 -0.986701 0.000000
10.081412 6.105855 2.240291 0.000000
145.563400 12.776935 3.329201 0.000000
130.898285 -20.786510 4.247182 0.000000
20.103415 -28.783815 -0.627344 0.000000
8.243752 5.851982 -1.801531 0.000000
10.906141 16.135801 -1.334692 0.000000
6.525759 -2.731432 -0.578935 0.000000
51.598957 -24.208580 -1.377586 0.000000
5.992985 -7.130733 -1.138965 0.000000
27.409025 -27.408390 -0.188996 0.000000
8.906961 3.898840 -1.807047 0.000000
6.614967 -6.378205 -0.914132 0.000000
37.227367 -31.541862 2.222448 0.000000
46.248619 -28.171541 0.488791 0.000000
94.520386 -30.454739 8.583925 0.000000
16.715790 20.636875 -0.538468 0.000000
8.019711 9.300594 0.366572 0.000000
136.517670 32.828960 6.111195 0.000000
119.977753 5.193174 -2.194545 0.000000
23.010866 14.995720 -1.838235 0.000000
148.251953 34.460133 0.458506 0.000000
85.593491 27.209553 -1.280147 0.000000
127.538940 37.245724 0.934174 0.000000
27.335129 -38.911564 3.268541 0.000000
49.164967 -8.909807 -2.096251 0.000000
9.386307 5.228298 -0.985301 0.000000
8.079737 8.898952 1.443609 0.000000
7.313245 -6.271806 -0.945096 0.000000
20.449993 14.774434 -1.835618 0.000000
45.359154 -27.160902 -0.078851 0.000000
37.400261 -32.314034 2.567857 0.000000
13.486238 4.508214 -1.823325 0.000000
40.244209 -28.880129 0.923144 0.000000
26.661331 19.813890 -1.134161 0.000000
9.780248 11.237257 1.067246 0.000000
23.347233 -33.028904 1.109295 0.000000
5.410475 -3.089878 -0.671348 0.000000
33.911324 -2.884918 -2.047034 0.000000
139.979187 17.193628 2.894033 0.000000
39.407578 5.013080 -1.914673 0.000000
9.682792 4.399052 -1.809368 0.000000
21.641708 -26.643938 -1.000915 0.000000
11.694738 16.171509 -1.480904 0.000000
135.052155 22.244503 -1.472501 0.000000
72.143257 -30.466772 1.641103 0.000000
33.894562 22.011116 -0.689309 0.000000
42.141376 -35.593834 4.246394 0.000000
6.970765 -6.887441 -0.739089 0.000000
39.989582 -35.928555 4.139697 0.000000
26.641424 19.641705 -1.166148 0.000000
10.412866 9.946372 -1.802568 0.000000
84.592545 -36.546043 7.167356 0.000000
19.516054 20.083059 -0.582236 0.000000
60.636578 -35.894390 8.476586 0.000000
47.961395 44.872917 -0.641026 0.000000
130.061600 -22.229465 7.612418 0.000000
134.382599 13.191020 1.666229 0.000000
31.036869 -22.102734 -1.746482 0.000000
75.576309 74.091866 -0.774584 0.000000
3.270351 5.294716 0.059787 0.000000
33.858120 27.275993 -0.747184 0.000000
19.643621 19.024977 -0.896174 0.000000
35.898720 11.675331 -1.186034 0.000000
45.383751 -31.525076 2.486600 0.000000
5.317272 -3.437116 -0.844752 0.000000
9.300678 2.685943 -1.916614 0.000000
12.190194 -2.360888 -1.971537 0.000000
10.530490 6.669788 1.298147 0.000000
11.664198 3.572488 -1.817502 0.000000
18.769077 -1.976930 -1.994833 0.000000
21.092482 7.281777 -1.848573 0.000000
5.446703 -2.731541 -0.793395 0.000000
117.834389 -19.092772 -0.303015 0.000000
5.333629 -2.996482 -1.063956 0.000000
55.270645 -29.668104 1.523658 0.000000
22.210835 -28.980234 -0.122585 0.000000
134.886612 11.626825 1.304365 0.000000
47.013290 35.990330 -1.136183 0.000000
51.929890 -37.561214 5.092707 0.000000
29.433327 -28.474461 0.319083 0.000000
29.663321 -25.876671 -0.627050 0.000000
34.149612 13.138238 -1.077014 0.000000
21.589321 -3.404216 -2.003737 0.000000
40.467365 -35.910336 4.190650 0.000000
68.310898 -49.195309 9.972409 0.000000
144.661636 112.506607 3.094182 0.000000
11.321024 6.881603 0.636990 0.000000
33.699894 3.687832 -1.895021 0.000000
39.462013 13.271255 -1.100152 0.000000
16.165705 21.814240 -0.099785 0.000000
11.125978 2.701642 -1.817191 0.000000
56.900578 -34.466522 4.074759 0.000000
49.553532 -62.901630 8.894646 0.000000
8.918339 7.016969 0.575197 0.000000
20.923628 2.324077 -2.003123 0.000000
88.418900 -30.885519 1.171293 0.000000
30.512917 -3.260217 -1.701284 0.000000
18.273232 20.641590 -0.490349 0.000000
12.063825 18.108028 -1.009369 0.000000
123.645920 -24.842556 0.114581 0.000000
20.823980 -31.575260 0.430863 0.000000
33.756195 -38.904438 5.014279 0.000000
24.142050 -24.514849 -1.521948 0.000000
127.551323 37.984703 3.022924 0.000000
35.409744 3.151718 -0.148975 0.000000
42.894478 -36.326355 4.697018 0.000000
32.642975 -26.410675 -0.308783 0.000000
15.528541 16.768753 -1.737438 0.000000
127.594055 42.011005 7.521724 0.000000
28.994192 -41.005810 4.014734 0.000000
91.946198 -33.505939 8.090471 0.000000
98.376389 113.662720 8.280927 0.000000
9.377622 7.315160 0.742839 0.000000
134.998947 13.513691 -0.393388 0.000000
5.322603 -3.650936 -1.079871 0.000000
11.777371 5.167273 1.279705 0.000000
12.314003 -2.178034 -1.972126 0.000000
7.177825 9.645504 0.278099 0.000000
47.218899 -36.448181 9.784703 0.000000
7.451895 -9.774103 -0.823428 0.000000
6.740093 -6.445855 -0.844779 0.000000
25.415134 16.226448 -1.745145 0.000000
6.100605 -6.326802 -1.115136 0.000000
11.057076 5.932010 -1.812591 0.000000
24.689579 -23.827066 -1.725920 0.000000
93.335991 -32.078121 7.786873 0.000000
30.275335 -32.239559 1.868946 0.000000
5.379562 -3.389650 -0.649092 0.000000
8.419621 9.144857 0.465854 0.000000
33.012699 -41.516220 5.061348 0.000000
55.944790 -3.469730 -1.321329 0.000000
8.933987 7.331677 0.557327 0.000000
20.687588 -30.577459 0.077935 0.000000
40.679607 23.556608 -1.360398 0.000000
134.976608 10.372919 -0.912392 0.000000
125.098831 40.938541 2.800411 0.000000
9.064577 7.821963 1.257928 0.000000
31.171526 -7.863889 -0.916163 0.000000
9.954916 0.649558 -1.965140 0.000000
41.089474 -23.479660 -1.555267 0.000000
9.755017 12.100304 1.028923 0.000000
6.784347 -11.028442 -0.571135 0.000000
10.904563 6.919086 0.621538 0.000000
18.876003 17.817989 -1.311753 0.000000
12.073070 16.992496 -1.342833 0.000000
33.782192 -40.352146 4.850898 0.000000
95.260536 -29.469213 5.194666 0.000000
5.989656 -6.746567 -1.157637 0.000000
101.673363 -35.691051 3.573276 0.000000
17.452858 19.237379 -0.969389 0.000000
7.446708 5.019032 -0.816246 0.000000
28.037170 -31.366453 1.307951 0.000000
66.647011 -64.578796 11.545297 0.000000
8.178251 3.835902 -1.804375 0.000000
70.418991 -71.459846 13.318607 0.000000
9.920571 6.162394 1.432637 0.000000
16.997759 1.157120 -1.989584 0.000000
17.425024 -4.737524 -1.987761 0.000000
3.360545 5.112224 0.041095 0.000000
10.756055 7.358914 0.860686 0.000000
62.548367 -33.719440 13.774570 0.000000
13.000895 18.804718 -0.851828 0.000000
34.333656 18.424397 -1.427602 0.000000
127.854607 71.002083 0.901712 0.000000
38.296814 1.306484 -2.063462 0.000000
26.422291 -2.357881 -2.021262 0.000000
18.511238 9.167617 -1.836831 0.000000
94.735329 -44.261257 9.694036 0.000000
110.149513 -28.004171 8.104638 0.000000
7.523714 8.281699 1.482728 0.000000
11.043570 15.707045 -1.472860 0.000000
12.889916 16.852360 -1.496727 0.000000
10.927522 1.683476 -1.968356 0.000000
30.980095 -6.860531 -1.734772 0.000000
27.583971 15.799867 -1.862537 0.000000
89.384178 45.611206 -1.323188 0.000000
33.831524 20.019072 -0.655227 0.000000
53.254482 -0.975160 -2.114843 0.000000
33.750664 16.298386 -1.390654 0.000000
26.572542 -0.430793 -2.022542 0.000000
43.925636 -27.033661 -0.111000 0.000000
74.887421 34.698689 -1.286374 0.000000
135.032166 18.546251 -0.292778 0.000000
125.106110 64.474930 3.343618 0.000000
5.869830 4.998246 -1.209954 0.000000
95.459358 -43.784454 5.679461 0.000000
7.572635 -9.868599 -0.696221 0.000000
78.934418 29.216648 -1.273373 0.000000
34.099182 -30.004854 1.496155 0.000000
20.521782 -30.453804 0.003059 0.000000
50.802612 -24.554712 -1.341447 0.000000
102.955185 59.264133 -0.826427 0.000000
7.076401 -9.639407 -1.071586 0.000000
147.049805 54.808121 3.452169 0.000000
124.809654 39.424564 -1.290287 0.000000
19.068193 -30.854630 -0.170479 0.000000
27.564884 -25.999657 -0.709735 0.000000
23.226755 -25.938410 -1.074654 0.000000
23.437389 15.450125 -1.764113 0.000000
9.050741 6.908262 0.858820 0.000000
19.376329 -2.687985 -1.996503 0.000000
56.146095 -3.460329 -0.311620 0.000000
36.714291 -30.188293 1.567392 0.000000
43.210743 -29.559711 1.395664 0.000000
7.701291 7.968368 0.953875 0.000000
10.212914 12.467932 1.181674 0.000000
6.167525 -2.820863 -0.408524 0.000000
11.678263 2.619778 -1.970597 0.000000
127.086281 55.960102 -0.945732 0.000000
100.542633 -28.574121 11.776840 0.000000
123.396294 -19.355637 -2.160472 0.000000
8.002264 -2.542459 -1.657559 0.000000
24.331455 8.749610 -1.859053 0.000000
14.266332 15.641254 -1.807022 0.000000
8.817632 11.999846 0.809096 0.000000
10.041066 3.889723 -1.811282 0.000000
7.486483 -2.596253 -0.990831 0.000000
7.649897 -6.369552 -0.839595 0.000000
130.072769 34.198120 0.379005 0.000000
89.212318 -58.320240 9.170616 0.000000
94.196808 5.707547 1.426283 0.000000
55.887760 -3.158607 -1.361508 0.000000
26.983774 16.583233 -1.780118 0.000000
13.621062 16.740820 -1.593083 0.000000
29.890129 14.665338 -1.873058 0.000000
7.407645 -6.456421 -0.676854 0.000000
31.939421 -26.882868 -0.033680 0.000000
5.334818 -3.207592 -0.925414 0.000000
16.485060 -2.446537 -1.986555 0.000000
36.112598 5.933732 -1.902876 0.000000
131.619415 33.455685 7.723911 0.000000
67.182266 -47.690437 12.732877 0.000000
60.357052 -31.432861 2.476585 0.000000
17.705832 19.784309 -0.786992 0.000000
69.349693 -26.515425 -0.127556 0.000000
127.580307 39.126228 8.958745 0.000000
9.357679 7.275621 1.905676 0.000000
92.993340 -45.535381 5.693924 0.000000
125.104431 42.213341 2.049250 0.000000
10.878710 16.224836 -1.306214 0.000000
113.038376 -31.433205 8.420813 0.000000
130.710938 -19.455198 3.692545 0.000000
127.497391 39.287376 7.865701 0.000000
30.989281 -7.324935 -1.291243 0.000000
52.449566 4.372548 -1.960188 0.000000
11.034214 7.767000 -1.809547 0.000000
6.933378 -6.029781 -1.438747 0.000000
26.126242 -27.658634 -0.173409 0.000000
6.752415 -10.196391 -0.590513 0.000000
95.602180 -30.561659 3.250378 0.000000
30.802860 -35.072205 3.023190 0.000000
35.683399 -31.139975 2.052521 0.000000
13.705044 20.111336 -0.471120 0.000000
98.039429 113.184593 8.494305 0.000000
28.285826 -36.349747 3.162937 0.000000
52.174488 -23.844120 -1.462867 0.000000
54.439850 -8.378857 -2.115191 0.000000
141.595230 5.128057 0.045745 0.000000
5.429246 -2.714614 -0.857331 0.000000
61.275261 -33.502426 3.706999 0.000000
9.505414 9.455959 -1.799615 0.000000
41.917007 4.996288 -1.923434 0.000000
117.488174 145.501846 9.580381 0.000000
10.815671 1.685991 -1.967963 0.000000
14.107989 -2.999457 -1.977737 0.000000
141.776688 30.592815 -0.089906 0.000000
25.826239 -39.859634 3.104718 0.000000
3.276538 5.152560 -0.317380 0.000000
8.211128 8.124621 1.033135 0.000000
31.176540 14.002344 -1.878773 0.000000
5.773935 -3.415209 -0.375504 0.000000
4.502332 5.023889 -0.727770 0.000000
24.577539 -28.127316 -0.091711 0.000000
23.852177 -30.465948 0.637324 0.000000
53.431923 -37.937813 5.426582 0.000000
117.828690 -19.082998 -1.025172 0.000000
6.150589 -2.779135 -0.463605 0.000000
38.168949 12.593902 -1.092026 0.000000
8.226978 8.734370 1.476391 0.000000
19.805449 4.678473 -1.845905 0.000000
106.575882 59.944752 -0.924426 0.000000
28.509033 6.840065 -1.875601 0.000000
40.205711 -6.315628 -2.066829 0.000000
8.285539 -9.956457 -0.623930 0.000000
7.146409 -3.386647 -0.303991 0.000000
20.296772 -32.000412 0.458888 0.000000
29.989063 -28.666748 0.432344 0.000000
28.283985 -26.772394 -0.374716 0.000000
61.348820 -25.950933 -0.581429 0.000000
14.344391 18.243135 -1.148497 0.000000
8.091042 -2.534694 -0.886486 0.000000
82.375092 -30.865402 8.387966 0.000000
23.255352 -26.334122 -0.918026 0.000000
56.089600 -3.109679 -1.298263 0.000000
41.133541 -30.528538 1.657038 0.000000
23.555395 -33.269100 1.220020 0.000000
5.324633 -3.325467 -0.821451 0.000000
19.197079 -20.321325 -1.842695 0.000000
77.898468 -29.099483 0.973154 0.000000
10.063871 -0.390897 -1.965344 0.000000
126.022919 46.743992 3.348501 0.000000
31.114969 -9.965142 -1.233804 0.000000
8.421961 -0.593211 -1.959568 0.000000
94.333275 5.643355 4.030260 0.000000
8.999925 6.725081 1.544943 0.000000
9.641475 -1.379900 -1.963358 0.000000
26.689688 -37.050858 2.926106 0.000000
6.144588 -2.847883 -0.378473 0.000000
6.674463 -2.580581 -0.954938 0.000000
56.073143 -3.165171 -0.615571 0.000000
14.184534 23.056734 -0.032658 0.000000
132.661972 37.165989 9.454128 0.000000
48.383862 -25.865425 -0.884116 0.000000
62.967247 -29.079145 1.290015 0.000000
5.491084 -4.170254 -0.667548 0.000000
19.765554 -30.803331 -0.041402 0.000000
66.907288 -25.700323 -0.530041 0.000000
127.939140 -25.678633 1.003174 0.000000
5.507462 -3.567932 -0.442400 0.000000
59.771454 -22.821856 -1.717310 0.000000
16.839903 19.262728 -1.000178 0.000000
11.389063 -0.498740 -1.969901 0.000000
13.565221 18.168911 -1.110406 0.000000
26.849056 -3.860260 -2.021829 0.000000
47.178074 -36.126659 9.359651 0.000000
11.733891 19.861362 -0.447757 0.000000
5.954702 -3.000307 -0.354747 0.000000
8.634382 3.060252 -1.806928 0.000000
90.516602 2.848085 3.594736 0.000000
10.631412 7.286952 -1.808749 0.000000
79.770103 5.750015 -1.137272 0.000000
14.291136 6.911266 1.025140 0.000000
16.851543 19.824802 -0.821279 0.000000
29.398365 -26.038219 -0.582561 0.000000
15.729667 23.323153 1.729874 0.000000
46.034046 -35.897846 4.533743 0.000000
23.364077 18.220520 -1.250043 0.000000
13.033799 18.312475 -1.019374 0.000000
14.288028 7.332761 1.140630 0.000000
40.115761 -35.871143 8.910235 0.000000
141.595688 6.391006 -2.210616 0.000000
86.195633 65.444084 -0.885035 0.000000
8.331570 8.264711 1.500167 0.000000
6.844728 -9.756505 -0.835105 0.000000
6.459540 -9.872661 -0.716806 0.000000
5.459353 -3.377384 -0.458237 0.000000
18.805836 5.053793 -1.332677 0.000000
57.162552 -33.998295 9.932411 0.000000
36.145878 -27.070751 -0.104648 0.000000
6.717286 -9.902604 -0.650488 0.000000
14.171747 4.974949 -0.794161 0.000000
62.813271 -18.775692 5.268635 0.000000
10.877357 1.544001 -1.968221 0.000000
29.098593 -23.588394 -1.522709 0.000000
30.193251 -3.683841 -1.093393 0.000000
6.416979 -6.819989 -0.935457 0.000000
114.797180 -1.702063 -2.327883 0.000000
20.440851 4.922054 5.341575 0.000000
141.581573 4.040223 -1.853669 0.000000
14.070155 18.852341 -0.922342 0.000000
104.653526 -16.176435 -2.285412 0.000000
7.890267 8.646523 0.213514 0.000000
63.456757 71.052429 6.080323 0.000000
29.691940 -3.759725 -2.031834 0.000000
31.219364 15.972154 -1.876400 0.000000
30.833744 -34.598431 2.874963 0.000000
30.956175 -31.433802 1.660577 0.000000
116.951439 -32.088814 2.458896 0.000000
125.718208 -62.208805 8.265623 0.000000
7.614504 8.731164 1.136233 0.000000
104.366531 2.063941 -2.140118 0.000000
18.767439 17.090580 -1.539863 0.000000
8.964687 7.799169 2.081439 0.000000
3.326596 5.121857 -0.362097 0.000000
16.637943 18.498449 -1.245549 0.000000
5.310036 -3.398099 -1.177645 0.000000
9.693176 13.194889 1.120971 0.000000
29.856672 0.860812 -2.034163 0.000000
11.430925 5.016179 -1.410459 0.000000
148.970795 34.122898 0.718105 0.000000
9.621430 1.456922 -1.963850 0.000000
8.927553 7.570462 0.552159 0.000000
22.741362 -26.346930 -0.971612 0.000000
28.151531 -23.327681 -1.679110 0.000000
3.268516 5.175426 -0.222133 0.000000
7.062566 -6.660753 -0.709363 0.000000
35.393047 3.181517 0.111057 0.000000
38.587475 -34.196579 3.386782 0.000000
14.810850 21.598394 -0.062473 0.000000
7.544018 8.637857 1.468582 0.000000
117.647324 -29.350578 1.774073 0.000000
62.178982 -24.879303 -1.140278 0.000000
8.246547 9.199874 0.407650 0.000000
8.568938 8.242240 0.466166 0.000000
7.361981 -7.358703 -0.631594 0.000000
5.723719 5.186509 -0.946908 0.000000
59.385952 -29.336433 1.228030 0.000000
8.814004 -2.436587 -1.959464 0.000000
39.430954 -24.767466 -1.260314 0.000000
22.620770 13.768103 -1.846104 0.000000
116.418831 59.767704 -0.450247 0.000000
6.433586 10.485531 0.348914 0.000000
125.504494 60.832489 7.012065 0.000000
6.392044 -6.067716 -1.322766 0.000000
92.269958 -32.760273 9.854287 0.000000
11.519967 1.798243 -1.970396 0.000000
6.206889 -6.642161 -0.998707 0.000000
96.852745 71.933830 3.164160 0.000000
147.746658 14.836567 8.807901 0.000000
8.973375 1.119223 -1.961672 0.000000
105.581795 -30.782022 1.075922 0.000000
27.540335 37.559116 2.372207 0.000000
6.139670 -6.228152 -1.168402 0.000000
29.181959 18.311987 -1.602986 0.000000
134.928467 17.863354 1.639987 0.000000
46.682796 -29.952417 1.522923 0.000000
12.901266 1.119976 -1.975353 0.000000
116.864868 -24.729877 0.020919 0.000000
5.322617 -3.632534 -0.921464 0.000000
28.045563 -27.820826 -0.000638 0.000000
5.727508 -2.500422 -1.093937 0.000000
27.027803 37.774418 3.414659 0.000000
31.015715 -28.740513 0.620500 0.000000
10.573839 0.437594 -1.967282 0.000000
33.884899 27.081196 -0.672365 0.000000
9.153046 -1.510374 -1.961550 0.000000
5.739217 -3.831020 -0.384690 0.000000
20.641880 20.101398 -0.652647 0.000000
34.893017 -37.081100 4.057601 0.000000
123.550507 49.353436 2.976590 0.000000
15.043191 2.028797 -1.982662 0.000000
8.860669 5.092728 -1.805260 0.000000
58.258171 -36.234936 6.556783 0.000000
10.508938 5.012422 -0.800121 0.000000
24.345814 25.895817 -0.208213 0.000000
131.438553 33.282639 1.511842 0.000000
135.741882 32.835999 2.630423 0.000000
85.142242 80.711807 -0.042462 0.000000
20.265251 15.477521 -1.833549 0.000000
127.571465 42.475918 0.487822 0.000000
5.382885 -4.216613 -0.911708 0.000000
27.418522 -27.726862 -0.070771 0.000000
147.391113 55.393391 8.088634 0.000000
24.492928 -32.806332 1.355047 0.000000
7.340570 7.840599 1.437931 0.000000
6.946648 -6.688999 -0.752831 0.000000
5.285922 -3.623426 -1.266580 0.000000
14.371424 21.439251 -0.091376 0.000000
10.139411 6.928892 2.379374 0.000000
27.035601 -28.474169 0.183488 0.000000
10.208622 0.527986 -1.966020 0.000000
84.030266 -24.647715 -0.714334 0.000000
130.004791 54.464432 -0.615940 0.000000
34.649094 2.471971 -2.013843 0.000000
39.733593 -37.371395 5.615671 0.000000
35.644035 -37.228737 4.247714 0.000000
8.661916 -9.515596 -0.887414 0.000000
25.322845 20.254246 -1.027303 0.000000
6.353938 -2.806374 -0.417722 0.000000
5.728639 5.251365 -0.488810 0.000000
60.418442 -34.537361 12.301723 0.000000
8.012956 -2.528157 -1.181168 0.000000
5.382320 -3.345121 -0.648267 0.000000
31.606903 -3.154256 -0.508316 0.000000
70.211838 19.041946 -1.222732 0.000000
9.380219 5.177773 -0.508466 0.000000
97.385956 -49.635597 7.106140 0.000000
55.992332 -3.682727 -1.048561 0.000000
51.995026 -23.137070 -1.861130 0.000000
95.086082 -45.188843 9.288129 0.000000
23.483006 -29.663092 0.365589 0.000000
29.599432 -34.973785 2.829950 0.000000
3.399503 5.135567 0.283349 0.000000
15.768949 23.159075 1.869207 0.000000
25.644495 -39.023361 2.994653 0.000000
40.698940 -34.685360 3.623832 0.000000
24.205387 7.777851 -1.859471 0.000000
40.913555 -24.007515 -1.362432 0.000000
5.326579 -3.390090 -0.784321 0.000000
9.808347 7.155742 0.736659 0.000000
43.529545 -32.897495 3.109223 0.000000
7.175528 -6.031566 -1.542493 0.000000
13.410827 18.157621 -1.101711 0.000000
5.415661 -2.784419 -0.812247 0.000000
7.091374 2.876824 -1.801423 0.000000
8.764965 7.736090 0.493598 0.000000
25.457548 -29.110310 0.329377 0.000000
8.474381 8.268152 0.424252 0.000000
67.928818 -55.331734 9.188194 0.000000
115.178955 -31.283270 6.014930 0.000000
9.864532 5.039362 -0.766855 0.000000
64.002731 -23.810282 -1.638557 0.000000
36.551785 18.580414 -1.744701 0.000000
69.869225 -26.388233 -0.138155 0.000000
36.908329 -10.134765 -2.051573 0.000000
27.262897 2.367180 -2.025184 0.000000
127.567505 37.283020 8.788613 0.000000
6.085593 -3.258676 -0.323712 0.000000
25.913731 -30.143764 0.736750 0.000000
58.741013 -2.344690 -1.255708 0.000000
60.711296 -34.764927 8.764364 0.000000
10.722570 6.854536 1.854895 0.000000
31.133907 -10.884293 -0.695991 0.000000
23.511099 5.929410 -1.858346 0.000000
4.179861 5.049343 -0.783115 0.000000
12.274153 4.675902 -1.818722 0.000000
17.077543 20.353825 -0.653020 0.000000
80.217079 15.864874 -1.240014 0.000000
92.688919 -31.259287 8.504145 0.000000
52.455898 -25.527262 -0.540858 0.000000
140.879639 59.799694 2.372628 0.000000
23.113483 -30.168509 0.452495 0.000000
95.263245 69.158722 3.060802 0.000000
23.434465 -24.160793 -1.739836 0.000000
7.153216 -10.816107 -0.491359 0.000000
9.415127 1.934175 -1.962935 0.000000
131.469574 61.407703 0.184658 0.000000
42.782104 -28.445927 0.753463 0.000000
30.479650 -24.917027 -0.920849 0.000000
137.702209 21.537870 0.691439 0.000000
45.166134 2.993608 -1.934950 0.000000
24.850668 15.801147 -1.789929 0.000000
13.492985 3.338518 -1.824232 0.000000
11.159470 5.727099 2.530512 0.000000
9.510225 6.880826 1.874782 0.000000
33.488544 -39.209198 5.819231 0.000000
8.985270 8.519130 1.341063 0.000000
22.512844 0.822581 -2.008703 0.000000
31.762796 -4.222627 -2.038764 0.000000
38.026558 5.500150 -1.909721 0.000000
21.351448 -30.736715 0.268544 0.000000
56.116951 -4.195784 -0.991390 0.000000
35.208862 -28.634411 0.737138 0.000000
33.391602 -25.275333 -0.930038 0.000000
71.777122 -27.734673 0.529595 0.000000
13.373075 15.203350 -1.803936 0.000000
15.682008 23.233717 0.159087 0.000000
7.327044 9.538021 0.282713 0.000000
27.839664 -40.226807 3.536674 0.000000
26.278713 -23.984032 -1.547361 0.000000
7.871871 -6.431755 -0.741618 0.000000
3.271432 5.177920 0.090696 0.000000
21.470421 22.086672 -0.450104 0.000000
10.265117 4.559499 1.208730 0.000000
11.312252 6.864855 0.626608 0.000000
8.847631 0.653106 -1.961295 0.000000
29.927301 -22.543526 -1.764627 0.000000
34.591248 0.078115 -2.050441 0.000000
21.331612 -29.433083 -0.159371 0.000000
116.144951 -32.128174 3.152299 0.000000
90.473450 2.806117 -0.756128 0.000000
8.256011 3.986982 -1.804478 0.000000
5.430823 -3.081048 -0.628486 0.000000
99.485985 -30.468046 2.097044 0.000000
5.333286 -3.502384 -0.751020 0.000000
71.809906 -47.617283 11.821173 0.000000
8.914281 4.396847 -1.806453 0.000000
35.393272 3.156956 -0.596329 0.000000
125.295525 2.701700 -0.619962 0.000000
7.388149 -9.990775 -0.480178 0.000000
7.870821 -6.407382 -0.786687 0.000000
7.972482 -6.406709 -0.785248 0.000000
14.251384 4.977090 -0.828566 0.000000
21.186352 -32.130577 0.613629 0.000000
9.663216 4.633872 1.011642 0.000000
70.939583 2.137233 -2.176690 0.000000
34.456333 16.898804 -1.643477 0.000000
93.790276 -14.475815 -2.248596 0.000000
5.423042 -2.758199 -0.822048 0.000000
34.149529 18.462629 -1.657720 0.000000
27.668064 -36.914654 3.134993 0.000000
95.657265 -30.562782 4.389761 0.000000
33.891750 27.915989 -0.645912 0.000000
110.644958 -30.437332 3.377792 0.000000
136.563065 32.760990 7.412346 0.000000
23.653698 -34.281662 1.484038 0.000000
8.018450 -6.281980 -0.947382 0.000000
55.878220 -35.916195 10.763781 0.000000
23.038441 4.652618 -1.857377 0.000000
118.386993 -52.512173 7.037186 0.000000
7.704572 4.100420 -1.802208 0.000000
115.749588 -32.051003 16.917261 0.000000
38.170116 -31.176798 2.028166 0.000000
9.290922 7.230751 0.687366 0.000000
25.881582 3.191202 -1.867849 0.000000
16.281317 15.972833 -1.815379 0.000000
33.714424 8.156382 -0.768123 0.000000
8.735756 8.154139 0.639102 0.000000
62.773304 -18.764282 1.953157 0.000000
24.012640 -32.080551 1.059170 0.000000
18.921623 -28.714222 -0.897101 0.000000
39.953232 -29.167612 1.062358 0.000000
11.601042 7.386345 0.951340 0.000000
36.838104 -25.007725 -1.187977 0.000000
5.639102 -2.627132 -0.831994 0.000000
47.597542 5.962225 -1.650389 0.000000
9.145872 9.425859 -1.798067 0.000000
10.590506 7.836027 -1.807593 0.000000
109.176842 -29.266544 3.810942 0.000000
141.779846 31.637615 -1.119660 0.000000
127.585213 41.221359 0.313102 0.000000
128.447708 -24.248423 0.120464 0.000000
104.636177 -28.851433 4.096818 0.000000
110.654968 87.999481 1.758307 0.000000
5.332318 -2.940037 -1.057447 0.000000
135.054199 22.284048 -0.957674 0.000000
134.361481 10.268725 1.047407 0.000000
33.693691 11.536267 -1.330968 0.000000
35.406052 3.341414 0.470856 0.000000
102.875099 -35.402607 2.222890 0.000000
33.124958 -41.079319 4.948373 0.000000
6.281788 -6.269077 -1.042681 0.000000
31.102686 -10.297612 -1.098780 0.000000
7.923616 7.420066 1.643886 0.000000
35.929066 7.944977 -1.809598 0.000000
59.212627 -9.943160 -2.130743 0.000000
12.392970 9.227932 -1.812488 0.000000
8.896420 8.569570 1.320017 0.000000
6.121439 -2.581028 -0.910923 0.000000
133.913986 76.174568 7.321031 0.000000
135.068008 23.582218 0.555122 0.000000
7.815585 -6.229035 -0.994603 0.000000
6.611584 -6.766731 -0.871982 0.000000
83.679527 -21.326221 -1.968040 0.000000
17.300081 20.077467 -0.723212 0.000000
7.208098 -7.113202 -0.658276 0.000000
10.410671 5.003649 -1.416563 0.000000
8.538938 6.881609 1.601812 0.000000
77.098305 70.656494 -0.861211 0.000000
67.317451 -51.880821 9.904405 0.000000
69.614922 -63.108562 10.113055 0.000000
24.661446 22.888332 -0.638739 0.000000
46.066536 -35.504555 4.436260 0.000000
9.629832 -2.342857 -1.962482 0.000000
11.502259 5.802545 1.441421 0.000000
98.758736 70.150169 0.247681 0.000000
16.088615 18.235668 -1.291664 0.000000
41.098930 2.954020 -1.920828 0.000000
18.346872 -4.901980 -1.990879 0.000000
9.196063 -1.966135 -1.961311 0.000000
5.345975 -3.025566 -0.969022 0.000000
9.446401 4.985331 -1.250658 0.000000
4.112626 5.065877 -0.679159 0.000000
23.327745 2.565111 -1.981792 0.000000
53.832886 2.965387 0.274483 0.000000
25.272938 -29.755087 0.557113 0.000000
11.433370 18.625883 -0.784780 0.000000
47.953617 -32.443699 3.069154 0.000000
48.725349 5.557465 0.777314 0.000000
24.450443 -29.895441 0.562659 0.000000
134.453857 23.976658 1.851772 0.000000
38.946396 -2.773513 -2.064583 0.000000
9.208967 6.473512 0.881429 0.000000
148.774597 70.343529 4.359023 0.000000
7.422988 4.723659 -1.800146 0.000000
23.369728 -27.362240 -0.506474 0.000000
10.685980 -0.348204 -1.967515 0.000000
127.573578 40.430233 4.742349 0.000000
7.693833 5.820977 1.000394 0.000000
51.897686 -26.604145 -0.083460 0.000000
112.440498 66.665337 0.589715 0.000000
33.992664 15.241548 -1.873913 0.000000
22.818239 4.932255 -0.843134 0.000000
51.905487 -61.344032 9.428030 0.000000
5.590588 -2.820800 -0.539481 0.000000
18.440495 8.197019 -1.837786 0.000000
28.674583 11.370904 -1.872414 0.000000
9.180962 8.328691 1.539804 0.000000
3.275765 5.153913 -0.335602 0.000000
32.009895 3.282271 -1.889196 0.000000
33.315243 -27.161039 0.052359 0.000000
29.096687 -4.679744 -2.029103 0.000000
30.176184 -3.487303 -1.384734 0.000000
5.566464 -2.615702 -0.875036 0.000000
8.561639 -9.536118 -0.863471 0.000000
9.656920 12.588794 1.027421 0.000000
50.998409 -25.322918 -0.908502 0.000000
8.492918 9.759583 0.581217 0.000000
28.468260 -38.109806 3.471174 0.000000
12.076996 -1.100715 -1.972021 0.000000
78.937096 3.760940 -2.052141 0.000000
9.977118 9.718691 1.648242 0.000000
33.226799 -26.067430 -0.511788 0.000000
26.124203 -38.934513 3.066922 0.000000
43.970024 -29.884100 1.563753 0.000000
132.518082 63.456608 3.293971 0.000000
10.638978 5.015164 -0.726606 0.000000
8.014476 -2.672596 -0.780922 0.000000
47.446857 -33.190376 8.575383 0.000000
127.548439 38.446312 1.392547 0.000000
5.332157 -2.899246 -1.022495 0.000000
130.806320 -22.599823 -1.036211 0.000000
31.031378 -7.987775 -1.241595 0.000000
7.584679 -6.185450 -1.029597 0.000000
13.330195 -2.777209 -1.975190 0.000000
15.663636 16.911572 -1.700522 0.000000
61.599949 -24.379433 -1.458254 0.000000
35.887203 4.053802 -1.902583 0.000000
22.895472 -25.644928 -1.226153 0.000000
10.363452 6.041657 1.184083 0.000000
30.613781 -3.530514 -0.594613 0.000000
40.291111 -35.475651 3.957140 0.000000
28.686678 -25.714979 -0.747944 0.000000
12.506363 18.595453 -0.881903 0.000000
10.318638 4.625450 -1.811492 0.000000
13.762796 19.511135 -0.676848 0.000000
79.070213 -39.629185 6.473137 0.000000
9.570467 -2.412523 -1.962197 0.000000
33.757961 14.083029 -0.588383 0.000000
11.439221 4.469700 0.994906 0.000000
20.174452 -27.391914 -1.064932 0.000000
16.364519 16.755650 -1.793198 0.000000
52.378742 -31.530560 2.469290 0.000000
30.543200 -3.172120 -0.808878 0.000000
19.795889 -30.483725 -0.138978 0.000000
9.384957 5.232862 -0.562448 0.000000
9.424114 7.880937 -1.802605 0.000000
72.429001 -32.183392 2.325092 0.000000
7.743296 8.971021 0.247940 0.000000
21.654804 -27.864801 -0.601454 0.000000
44.101784 -7.590504 -2.079518 0.000000
28.204775 -25.042175 -1.030758 0.000000
24.571358 5.013031 -1.689295 0.000000
58.855629 -34.197643 3.963654 0.000000
32.083057 -30.870071 1.615830 0.000000
95.195831 69.029335 3.008509 0.000000
25.236261 -25.564985 -1.016282 0.000000
29.101017 -1.173682 -2.031075 0.000000
24.385927 -24.553837 -1.479019 0.000000
30.286860 -3.201045 -1.057734 0.000000
6.477262 -3.478563 -0.294167 0.000000
103.421036 92.523491 1.541680 0.000000
25.399738 16.525703 -1.686295 0.000000
7.239526 -9.754609 -0.845880 0.000000
10.310324 6.345895 1.542112 0.000000
86.935982 71.581772 -0.404337 0.000000
104.763245 44.512276 -1.050704 0.000000
25.885500 -28.366295 0.078336 0.000000
6.980346 -6.612045 -0.742338 0.000000
31.083158 -10.621133 -1.456041 0.000000
9.767464 6.753237 1.748196 0.000000
5.322905 -4.060921 -1.010707 0.000000
30.964472 -6.954587 -1.403276 0.000000
5.353826 -3.060720 -0.919299 0.000000
6.208797 -6.120006 -1.343580 0.000000
6.125063 -2.856839 -0.369048 0.000000
13.585720 17.348120 -1.386914 0.000000
17.294079 19.024702 -1.044110 0.000000
6.949784 -6.040472 -1.314786 0.000000
52.661758 -29.429560 1.517250 0.000000
61.729198 -31.809515 7.188049 0.000000
53.389729 -3.693039 -2.114322 0.000000
8.304722 -1.512437 -1.958567 0.000000
9.307719 9.654476 -1.798278 0.000000
7.465680 7.714226 0.881855 0.000000
46.373432 6.633433 -1.376593 0.000000
19.634928 -28.403227 -0.849048 0.000000
8.629856 5.920967 -1.802986 0.000000
9.324471 6.044350 2.047954 0.000000
7.711280 10.457065 0.508221 0.000000
8.174024 6.357035 1.276476 0.000000
7.740809 3.445778 -1.803201 0.000000
7.089714 -6.265929 -0.956531 0.000000
141.740860 28.417446 -1.593372 0.000000
137.475342 32.825836 0.689717 0.000000
127.072823 66.964233 6.242230 0.000000
92.758888 -34.730789 7.737461 0.000000
7.902723 9.156831 0.307669 0.000000
19.226702 19.490015 -0.780927 0.000000
16.955734 5.067570 -1.835437 0.000000
7.510318 -9.624538 -1.149943 0.000000
22.210339 -25.044266 -1.537022 0.000000
6.226670 -2.617410 -0.843491 0.000000
31.631573 -34.173054 2.832881 0.000000
5.858936 -3.273296 -0.360264 0.000000
3.311759 5.128108 -0.360761 0.000000
25.421783 -24.690159 -1.334232 0.000000
21.737999 4.404842 -1.852900 0.000000
128.101120 -21.878674 3.750017 0.000000
5.338420 -2.802052 -1.263289 0.000000
6.713088 5.029469 -0.806190 0.000000
96.044899 88.980858 1.091461 0.000000
141.608368 7.279210 -0.221240 0.000000
95.147438 -45.427925 9.462891 0.000000
127.158562 59.036369 4.289510 0.000000
34.237228 9.842259 -1.096182 0.000000
37.727390 -24.328833 -1.530204 0.000000
98.253922 64.080406 -0.369571 0.000000
8.320091 8.820158 1.530119 0.000000
54.109581 -43.213966 7.764460 0.000000
6.324991 -2.685782 -0.684371 0.000000
18.487288 7.432765 -1.838830 0.000000
9.578863 7.247072 1.155107 0.000000
57.191811 -50.227657 8.991946 0.000000
17.502201 0.040342 -1.991230 0.000000
8.849894 5.305351 -1.804890 0.000000
116.646324 -29.668301 1.680320 0.000000
118.349014 20.421989 -0.967072 0.000000
146.866302 27.750757 7.387009 0.000000
21.817478 -36.145763 1.537329 0.000000
104.214157 1.877732 -2.212817 0.000000
109.528793 -29.835173 3.968439 0.000000
35.377861 -29.292849 1.071934 0.000000
18.832165 -31.915382 0.125159 0.000000
11.109356 7.029558 0.703072 0.000000
134.849167 9.455359 0.043405 0.000000
137.074539 6.539320 5.017558 0.000000
24.339382 4.898168 -1.558795 0.000000
5.497577 -4.160857 -0.652793 0.000000
25.150631 -22.386360 -1.831069 0.000000
72.913635 -62.201954 9.760364 0.000000
14.926285 -0.604459 -1.982128 0.000000
37.690853 -24.699085 -1.333974 0.000000
44.675564 -34.793411 4.174744 0.000000
6.498795 7.241641 0.721596 0.000000
11.090020 15.544120 -1.524212 0.000000
69.263245 -64.014343 9.884437 0.000000
11.647710 5.683967 2.572296 0.000000
57.307049 5.989020 -0.821244 0.000000
5.339195 -2.809599 -1.064851 0.000000
89.861145 -58.790283 8.938560 0.000000
130.795959 -22.126326 9.289047 0.000000
72.521255 -25.739052 -0.288700 0.000000
121.995766 49.490654 2.295790 0.000000
141.593307 4.843684 0.029188 0.000000
81.567780 -32.413715 8.438829 0.000000
5.074745 5.048249 -0.666034 0.000000
9.127364 -2.443407 -1.460551 0.000000
10.178156 5.655221 1.091262 0.000000
16.439610 2.148839 -1.987513 0.000000
6.289688 -7.297693 -0.971744 0.000000
3.326765 5.126606 0.163428 0.000000
128.814026 -20.764954 5.391834 0.000000
35.010315 -9.855928 -2.045075 0.000000
11.617452 5.014919 -1.343953 0.000000
84.743042 95.531281 0.473011 0.000000
7.344029 7.771080 0.889278 0.000000
31.661270 -3.479635 -0.458124 0.000000
20.305159 -34.594700 1.011674 0.000000
9.901582 4.595027 -1.809954 0.000000
73.182716 77.457222 1.582369 0.000000
11.116844 5.467346 2.424052 0.000000
97.753082 -27.329590 6.998965 0.000000
129.404602 -21.385117 5.693353 0.000000
25.122173 -0.736755 -2.017427 0.000000
6.512614 -6.051464 -1.308008 0.000000
125.292000 2.716799 -1.665690 0.000000
115.727242 -24.082296 -0.422192 0.000000
34.315971 -36.709488 3.832051 0.000000
6.990280 -2.784113 -0.476259 0.000000
7.655228 8.967831 1.491932 0.000000
22.043079 -25.401266 -1.417702 0.000000
15.439565 17.333748 -1.541216 0.000000
17.359863 16.813986 -1.712753 0.000000
33.246197 -39.940525 4.628448 0.000000
9.233776 11.248889 0.914857 0.000000
8.194616 5.098580 -1.802617 0.000000
134.988205 63.312187 0.301263 0.000000
81.146782 -23.820751 -1.081104 0.000000
45.155533 -33.613041 3.661023 0.000000
24.387600 -26.314978 -0.796415 0.000000
5.365978 -3.479550 -0.671595 0.000000
8.064606 8.220901 1.042471 0.000000
22.412706 -29.063780 -0.053187 0.000000
125.403999 42.155910 -0.815949 0.000000
31.119593 -10.954751 -0.810265 0.000000
35.046902 13.346188 -1.089463 0.000000
11.863243 17.150513 -1.260531 0.000000
18.376616 -31.035042 -0.256326 0.000000
33.698315 11.381204 -1.336997 0.000000
8.786320 4.676534 0.740545 0.000000
11.552840 4.738323 1.100751 0.000000
94.128494 -54.785324 8.574785 0.000000
26.844299 -25.950060 -0.772646 0.000000
6.726340 -2.753956 -0.535116 0.000000
10.593445 3.841273 -1.813365 0.000000
10.589001 8.810877 -0.874688 0.000000
38.318493 -36.709553 8.033942 0.000000
22.571434 -35.168198 1.433245 0.000000
9.320713 9.584692 -1.798496 0.000000
46.713688 -22.766788 -1.917002 0.000000
19.706289 -29.884739 -0.352467 0.000000
22.818264 2.263062 -2.009731 0.000000
19.088614 -29.677580 -0.548960 0.000000
41.580009 -29.507919 1.216937 0.000000
19.659477 5.057981 -1.845150 0.000000
116.438820 64.024765 3.530249 0.000000
27.549854 -28.263994 0.134935 0.000000
31.873552 7.389645 -1.887247 0.000000
3.259192 5.214475 0.289173 0.000000
8.536985 4.483079 -1.804888 0.000000
33.800869 20.114044 -0.695014 0.000000
28.371841 -34.426453 2.456995 0.000000
20.225571 -31.651215 0.330457 0.000000
5.777096 -3.103955 -0.379352 0.000000
5.331898 -3.934967 -0.994626 0.000000
30.062832 -23.413223 -1.465118 0.000000
7.935264 8.726894 1.178323 0.000000
125.083969 40.177601 -1.261040 0.000000
33.796612 18.519451 -0.727225 0.000000
18.951504 3.460144 -1.843491 0.000000
21.129599 -34.175339 1.033668 0.000000
3.253046 5.212420 -0.266439 0.000000
7.455308 -9.612916 -1.194448 0.000000
31.083223 -31.439833 1.682646 0.000000
91.286041 11.966078 -1.279024 0.000000
9.274524 12.707880 0.926258 0.000000
72.658020 74.879112 1.700927 0.000000
26.813307 -35.318233 2.550370 0.000000
6.746949 -6.988927 -0.825900 0.000000
6.242209 -6.420174 -0.999851 0.000000
5.794637 -2.497514 -1.083143 0.000000
20.101547 -30.491444 -0.072570 0.000000
98.665581 -22.999626 -1.326630 0.000000
6.899738 -2.740645 -0.574171 0.000000
17.058836 18.676718 -1.164827 0.000000
6.825561 7.937824 1.228723 0.000000
75.883598 -50.419388 10.867888 0.000000
61.509815 1.483841 -2.143933 0.000000
6.842002 -6.062733 -1.181441 0.000000
41.780743 -0.958100 -2.075091 0.000000
72.814507 1.355565 -2.183088 0.000000
13.406662 18.278044 -1.061051 0.000000
51.497505 6.025422 -1.732816 0.000000
14.735918 2.643245 -1.918586 0.000000
146.128891 28.160378 6.695059 0.000000
46.779015 -1.965236 -2.092088 0.000000
104.758751 67.197067 0.309061 0.000000
117.756294 -34.250450 3.254545 0.000000
57.030872 -35.241997 11.453785 0.000000
15.987689 17.588173 -1.500220 0.000000
24.072258 -26.823610 -0.635231 0.000000
14.430106 14.981090 -1.809299 0.000000
9.637504 6.368980 0.989164 0.000000
11.218763 -2.321181 -1.968141 0.000000
8.803011 9.686522 0.699221 0.000000
4.496891 5.066338 -0.800226 0.000000
6.424411 -2.504170 -1.118825 0.000000
45.536243 -36.258411 8.740949 0.000000
33.428085 -32.076233 2.294554 0.000000
95.367386 -43.917252 5.662369 0.000000
8.404751 1.471418 -1.959576 0.000000
7.511791 2.459579 -1.955776 0.000000
20.534786 16.622490 -1.570589 0.000000
11.996032 -1.144782 -1.971716 0.000000
7.524065 -6.301883 -0.910514 0.000000
17.553928 0.730916 -1.991504 0.000000
68.444969 -66.654907 10.644033 0.000000
3.313144 5.130636 -0.021498 0.000000
9.112995 8.157468 0.854616 0.000000
17.443981 21.550781 -0.265523 0.000000
30.297396 -3.238307 -1.001766 0.000000
14.212468 16.929573 -1.577597 0.000000
22.015253 -24.585270 -1.737148 0.000000
6.061132 -6.706555 -1.052406 0.000000
6.731324 -6.221177 -0.991396 0.000000
93.920120 64.662453 -0.539081 0.000000
27.704496 7.873089 -1.872036 0.000000
14.656460 6.598046 1.010600 0.000000
6.917104 9.132349 0.144816 0.000000
16.995649 4.966059 -0.667715 0.000000
60.673161 -35.206646 10.027904 0.000000
28.172611 -33.857594 2.235650 0.000000
8.805217 9.060263 0.798585 0.000000
7.724624 8.809593 1.174902 0.000000
8.084954 5.011551 -1.437118 0.000000
7.640893 -6.393470 -0.803076 0.000000
5.358570 -3.193640 -0.744449 0.000000
56.815926 -36.132744 4.991324 0.000000
40.897572 -35.547676 4.068130 0.000000
14.987369 7.153718 -1.826018 0.000000
49.107388 -62.127838 8.521341 0.000000
30.995413 -7.517796 -1.286897 0.000000
5.332611 -3.231953 -0.906026 0.000000
23.373701 -37.367950 2.138145 0.000000
131.483963 -21.065868 3.456648 0.000000
9.580358 12.483181 0.989561 0.000000
108.830193 -28.239866 0.677644 0.000000
8.273934 -0.923052 -1.958879 0.000000
21.567904 -31.920275 0.620485 0.000000
20.768188 16.290951 -1.656602 0.000000
59.256313 -29.297892 1.198640 0.000000
3.267776 5.287994 0.017643 0.000000
14.267237 20.695505 -0.320935 0.000000
22.750977 2.580467 -1.922942 0.000000
32.885170 -30.236151 1.493419 0.000000
22.423059 -3.309802 -2.006728 0.000000
11.369975 8.141527 -1.810254 0.000000
28.595800 -23.354221 -1.641765 0.000000
5.148132 5.123510 -0.640764 0.000000
8.537457 1.413872 -1.960063 0.000000
33.877300 25.423903 -0.819372 0.000000
127.810562 -23.855419 -0.110542 0.000000
26.137634 -31.381948 1.206685 0.000000
30.561352 -2.869254 -1.286743 0.000000
48.632893 -36.315422 11.789152 0.000000
7.832226 2.134672 -1.957187 0.000000
8.434913 9.940835 0.600686 0.000000
10.907690 3.844440 -1.814515 0.000000
120.225960 -20.126060 -2.014036 0.000000
13.577284 7.994363 -1.819376 0.000000
39.933537 -23.529556 -1.744964 0.000000
16.699123 2.589498 -1.988298 0.000000
13.281484 19.811119 -0.537404 0.000000
97.276260 -44.030025 13.007538 0.000000
21.336702 -2.773147 -2.003271 0.000000
19.853390 3.938481 -1.846462 0.000000
60.813259 5.286253 -1.989193 0.000000
34.477264 20.280924 -1.688456 0.000000
22.622398 13.793496 -1.846070 0.000000
28.292017 4.885963 -0.829907 0.000000
59.464001 -27.964384 0.452108 0.000000
5.323614 -3.626830 -0.986951 0.000000
7.208885 -9.671621 -0.959163 0.000000
14.398913 6.980369 2.232451 0.000000
12.174639 -2.649991 -1.971217 0.000000
3.306338 5.133825 0.014069 0.000000
10.926838 5.475841 1.257801 0.000000
9.410097 6.674406 2.086253 0.000000
124.236519 84.692215 3.226840 0.000000
9.091701 -0.980133 -1.961696 0.000000
75.084190 -30.974213 1.800936 0.000000
137.044571 61.591511 6.315619 0.000000
5.914583 -3.769715 -0.350158 0.000000
3.265573 5.197862 0.264314 0.000000
56.366653 -11.679818 -0.686555 0.000000
28.276159 -26.749945 -0.383648 0.000000
25.217636 -32.815430 1.545838 0.000000
96.773712 -44.754536 13.930636 0.000000
46.663162 -29.317638 1.150272 0.000000
53.834988 3.237094 0.373760 0.000000
7.454609 -6.068847 -1.259413 0.000000
86.396942 28.434132 -1.285652 0.000000
11.530978 10.934019 -1.805360 0.000000
66.721962 -11.296959 -2.156054 0.000000
10.607499 8.810291 -0.231920 0.000000
19.285084 -28.835964 -0.781527 0.000000
135.013580 21.277950 -0.783644 0.000000
22.773590 -25.535158 -1.282581 0.000000
33.513973 -42.297283 5.398390 0.000000
12.605487 4.977180 -0.729584 0.000000
8.992691 13.066477 0.888569 0.000000
12.833194 1.148042 -1.975113 0.000000
26.693111 37.582657 3.697175 0.000000
30.420292 -29.109154 0.671651 0.000000
7.383981 -9.684148 -0.945513 0.000000
31.013651 -43.291336 4.969306 0.000000
33.136044 -6.545411 -1.097778 0.000000
3.274567 5.157394 -0.319160 0.000000
138.521545 97.045441 7.464487 0.000000
29.847506 -40.519646 4.231947 0.000000
9.319963 6.904264 2.080725 0.000000
12.895790 7.869663 -1.816876 0.000000
27.008884 -23.905939 -1.531856 0.000000
6.850348 -6.141283 -1.046029 0.000000
3.288195 5.145386 0.382261 0.000000
146.537521 55.175377 7.533699 0.000000
39.054237 1.694488 -2.066118 0.000000
5.376146 5.058482 -0.782583 0.000000
91.972069 -30.862898 5.469111 0.000000
20.989697 -27.652037 -0.809794 0.000000
126.886475 59.585712 -0.143500 0.000000
50.241901 -24.981934 -1.220958 0.000000
13.298574 17.918797 -1.172630 0.000000
92.969894 -29.996197 6.664983 0.000000
9.424547 11.707578 0.955088 0.000000
7.299500 10.769055 0.522584 0.000000
117.315399 63.793282 6.812274 0.000000
13.175724 18.118877 -1.095690 0.000000
5.391711 -3.046107 -0.728382 0.000000
44.137718 -55.846519 8.099833 0.000000
67.689362 -25.667198 -0.563239 0.000000
18.313734 2.814350 -1.841485 0.000000
16.165359 21.236206 -0.293340 0.000000
10.084795 6.037640 1.096490 0.000000
127.572220 39.637939 5.799120 0.000000
125.297394 2.850507 -0.356239 0.000000
11.185865 0.583584 -1.969412 0.000000
20.245411 4.140758 -1.847751 0.000000
130.968475 -23.063721 1.730876 0.000000
114.788483 -27.121653 0.789009 0.000000
7.307284 4.004194 -1.800805 0.000000
8.832745 3.620176 -1.807088 0.000000
27.780836 0.289058 -2.026888 0.000000
11.575717 11.220694 -1.804932 0.000000
90.471291 2.835148 -0.069038 0.000000
6.031780 -6.670147 -1.108022 0.000000
6.770168 6.385174 0.118577 0.000000
10.473519 6.513485 1.264938 0.000000
7.810762 8.601881 0.192839 0.000000
33.816299 19.614248 -1.263549 0.000000
32.697300 -25.644011 -0.709198 0.000000
31.156889 -10.519268 -0.534695 0.000000
64.089661 69.881401 6.806433 0.000000
9.953269 5.015978 -0.684830 0.000000
59.464214 2.518295 -1.984542 0.000000
5.456879 -3.871705 -0.531105 0.000000
32.863766 -5.300904 -2.041846 0.000000
33.578178 -4.603240 -2.044852 0.000000
44.654488 -41.408028 5.772857 0.000000
127.495613 40.536560 5.111771 0.000000
8.959641 0.568013 -1.961686 0.000000
25.291941 -24.838760 -1.286265 0.000000
127.532654 34.791328 3.648926 0.000000
6.608442 -6.052364 -1.235904 0.000000
94.076927 -45.229092 5.562770 0.000000
128.444702 34.203621 4.422493 0.000000
9.631594 7.165203 2.282038 0.000000
56.319340 -11.385532 -0.681260 0.000000
23.003119 14.697344 -1.846123 0.000000
5.669530 5.065270 -0.797860 0.000000
29.498608 -26.532738 -0.393776 0.000000
7.428473 -9.897720 -0.653290 0.000000
12.007011 5.013392 -1.485611 0.000000
31.105831 -10.451314 -1.314214 0.000000
11.275626 6.231948 1.607685 0.000000
13.210157 10.076184 -1.814303 0.000000
13.170260 -2.048945 -1.975234 0.000000
19.645369 -28.680719 -0.756653 0.000000
58.766132 -29.947111 1.539769 0.000000
47.171646 -36.436771 4.830680 0.000000
8.755573 -1.374969 -1.960259 0.000000
13.657875 17.782948 -1.247142 0.000000
8.042806 3.232565 -1.804572 0.000000
5.437281 -2.584675 -1.125662 0.000000
8.746052 9.560163 0.661591 0.000000
77.132492 -27.924500 0.513280 0.000000
19.341665 -31.537035 0.108584 0.000000
72.739540 5.924882 -1.452871 0.000000
93.321495 -32.248394 10.259002 0.000000
8.313295 -9.817342 -0.811071 0.000000
17.366415 3.558364 -1.837856 0.000000
53.167782 -31.827143 2.683623 0.000000
8.806321 6.632291 0.567475 0.000000
44.521290 -35.286629 4.395230 0.000000
48.634674 -32.370998 3.058301 0.000000
41.486217 0.631002 -2.074429 0.000000
12.664304 0.690003 -1.974544 0.000000
28.046312 -26.142992 -0.626212 0.000000
11.717668 15.256140 -1.722470 0.000000
9.879398 -0.127613 -1.964785 0.000000
85.785904 38.762299 -1.275748 0.000000
67.345154 -53.581001 10.003505 0.000000
