# .PCD v0.7 - Point Cloud Data file format
VERSION 0.7
FIELDS x y z rgb
SIZE 4 4 4 4
TYPE F F F F
COUNT 1 1 1 1
WIDTH 889
HEIGHT 1
VIEWPOINT 0 0 0 1 0 0 0
POINTS 889
DATA ascii
-4.541337013 11.67211723 -1.919707417 2.222419007e-38
-4.622456551 11.66662025 -1.923464179 2.222419007e-38
-4.683121681 11.60958672 -1.918800235 2.222419007e-38
-4.779675484 11.64084721 -1.928818345 2.222419007e-38
-4.834879398 11.57116699 -1.922188878 2.222419007e-38
-4.918055058 11.56860065 -1.926776052 2.222419007e-38
-4.982953548 11.52280712 -1.924244761 2.222419007e-38
-5.031348705 11.43991184 -1.915564537 2.222419007e-38
-5.118622303 11.44587898 -1.921820879 2.222419007e-38
-5.177533627 11.3880043 -1.917449117 2.222419007e-38
-5.239254951 11.33719826 -1.914310455 2.222419007e-38
-5.3209095 11.3293457 -1.918508172 2.222419007e-38
-5.396984577 11.30910683 -1.920697451 2.222419007e-38
-5.462230682 11.26601124 -1.919077396 2.222419007e-38
-5.521143436 11.21035004 -1.915372372 2.222419007e-38
-5.610572815 11.21639252 -1.922297955 2.222419007e-38
-5.665369511 11.15298843 -1.917402744 2.222419007e-38
-3.891876698 7.432538986 -1.285965443 2.259153205e-38
-3.88625741 7.311440945 -1.269145489 2.268336755e-38
-3.885734081 7.20262146 -1.254404306 2.268336755e-38
-3.899410248 7.122196674 -1.244575381 2.268336755e-38
-3.901683331 7.02290535 -1.231415629 2.268336755e-38
-3.913246393 6.942203045 -1.221489668 2.268336755e-38
-3.920517921 6.855700493 -1.210506082 2.268336755e-38
-3.943061113 6.797213554 -1.204463601 2.268336755e-38
-4.000749111 6.704195976 -1.196663141 2.268336755e-38
-4.004371166 6.616936684 -1.185481071 2.268336755e-38
-4.036903858 6.57849741 -1.183046222 2.268336755e-38
-4.064128876 6.531916142 -1.179167271 2.268336755e-38
-4.097603798 6.495798588 -1.17719686 2.268336755e-38
-4.122534275 6.446641445 -1.172888756 2.268336755e-38
-4.166786671 6.427889347 -1.17413938 2.268336755e-38
-4.198698044 6.390190125 -1.171978354 2.268336755e-38
-4.220154762 6.337120533 -1.167007923 2.268336755e-38
-4.298746109 6.369399548 -1.177824259 2.268336755e-38
-4.384489059 6.326259613 -1.179782033 2.268336755e-38
-4.408332825 6.277396202 -1.175734997 2.268336755e-38
-4.468996525 6.280822277 -1.18152976 2.268336755e-38
-4.51569891 6.264051914 -1.18360734 2.268336755e-38
-4.563239574 6.248223782 -1.185925961 2.268336755e-38
-4.61770916 6.24140358 -1.190025926 2.268336755e-38
-4.774734974 6.370848656 -1.220314384 2.268336755e-38
-4.881496906 6.348142147 -1.227435708 2.268336755e-38
-5.05001688 6.483929157 -1.259705424 2.268336755e-38
-5.13271904 6.506703377 -1.270273089 2.268336755e-38
-5.135548592 6.428106308 -1.261108756 2.268336755e-38
-5.106202602 6.310967445 -1.244297028 2.268336755e-38
-5.117016315 6.244969368 -1.237498999 2.268336755e-38
-5.174911022 6.236522198 -1.242144704 2.268336755e-38
-5.270682812 6.272591591 -1.255793452 2.268336755e-38
-5.325327396 6.258637428 -1.25957334 2.268336755e-38
-5.374048233 6.237325668 -1.261951208 2.268336755e-38
-5.452940941 6.250311852 -1.271377921 2.268336755e-38
-5.534641743 6.265305996 -1.281364679 2.268336755e-38
-5.585506439 6.244644165 -1.284176588 2.259153205e-38
-5.646039486 6.234289646 -1.289203644 2.259153205e-38
-5.723561287 6.241852283 -1.29806304 2.259153205e-38
-5.778707981 6.224313736 -1.301819205 2.259153205e-38
-5.866748333 6.241297245 -1.31293416 2.259153205e-38
-5.963421822 6.266021729 -1.325867653 2.259153205e-38
-6.009184361 6.236433506 -1.327443719 2.259153205e-38
-6.083518982 6.235911846 -1.335315108 2.259153205e-38
-6.152114391 6.228695393 -1.341893315 2.259153205e-38
-6.23133564 6.231374741 -1.350744247 2.259153205e-38
-6.31267643 6.235100746 -1.359989643 2.259153205e-38
-6.398546219 6.242220879 -1.37014842 2.259153205e-38
-6.473004341 6.237194061 -1.377805471 2.259153205e-38
-6.560390949 6.24361372 -1.388159037 2.259153205e-38
-6.63823843 6.239926338 -1.396439791 2.259153205e-38
-6.819640636 6.253367901 -1.418218732 2.259153205e-38
-6.898654461 6.24771595 -1.426587343 2.259153205e-38
-6.998355389 6.259684563 -1.439171195 2.259153205e-38
-7.064266205 6.24043417 -1.44476366 2.249969656e-38
-7.152478695 6.240038872 -1.454885006 2.249969656e-38
-7.233812332 6.232634068 -1.463562369 2.249969656e-38
-7.352311134 6.255903721 -1.479675889 2.249969656e-38
-7.466031075 6.273495674 -1.494727373 2.249969656e-38
-7.555315495 6.269225121 -1.504814744 2.249969656e-38
-7.627815723 6.250132084 -1.511525989 2.249969656e-38
-7.740936756 6.263202667 -1.526238918 2.249969656e-38
-7.821914196 6.249064445 -1.534551978 2.249969656e-38
-7.922867775 6.249850273 -1.546746016 2.249969656e-38
-8.077735901 6.291380405 -1.56935811 2.249969656e-38
-9.905612946 7.617094517 -1.915295362 2.222419007e-38
-9.958796501 7.463765621 -1.907567859 2.222419007e-38
-10.05368805 7.342512131 -1.908217192 2.222419007e-38
-10.0883913 7.272587299 -1.906213999 2.222419007e-38
-10.1474371 7.220229149 -1.90891099 2.222419007e-38
-10.19547939 7.159851074 -1.909581661 2.222419007e-38
-10.21117687 7.0769701 -1.904279947 2.222419007e-38
-10.34432316 6.981462955 -1.912868977 2.222419007e-38
-10.40913582 6.839370251 -1.909059644 2.222419007e-38
-10.45537281 6.77755785 -1.909822464 2.222419007e-38
-10.46720123 6.693668365 -1.904383063 2.222419007e-38
-10.54020309 6.648850441 -1.910143375 2.222419007e-38
-10.56243134 6.571929932 -1.90677464 2.222419007e-38
-10.60424614 6.507300854 -1.90701735 2.222419007e-38
-10.66324139 6.453065872 -1.91042006 2.222419007e-38
-10.69501114 6.382266998 -1.908994198 2.222419007e-38
-10.73644257 6.317283154 -1.909387589 2.222419007e-38
-10.79868317 6.175428867 -1.906725645 2.222419007e-38
-10.85303116 6.117716789 -1.909599185 2.222419007e-38
-10.88937569 6.049774647 -1.909378767 2.222419007e-38
-10.8984642 5.966901779 -1.904465556 2.222419007e-38
-10.97441673 5.92056942 -1.91130209 2.222419007e-38
-10.98824692 5.840606689 -1.907381296 2.222419007e-38
-10.9704504 5.744404316 -1.898089051 2.222419007e-38
-11.06026173 5.704584599 -1.907489419 2.222419007e-38
-11.09103107 5.633879185 -1.906746984 2.222419007e-38
-11.12008858 5.562396526 -1.905797005 2.222419007e-38
-11.14665699 5.48977375 -1.904491186 2.222419007e-38
-11.20705318 5.433654308 -1.909035802 2.222419007e-38
-11.21093178 5.350149155 -1.904024839 2.222419007e-38
-11.2481308 5.282731533 -1.904755592 2.222419007e-38
-10.15488148 4.692908764 -1.71467936 2.240786106e-38
-10.11078644 4.521618366 -1.697657943 2.240786106e-38
-10.20521164 4.488304138 -1.708821654 2.240786106e-38
-10.36227989 4.481122971 -1.73044765 2.240786106e-38
-10.5598135 4.489241123 -1.758765578 2.231602557e-38
-11.47015858 4.79269743 -1.905411005 2.222419007e-38
-11.49538136 4.719908714 -1.904714704 2.222419007e-38
-11.51477718 4.644915581 -1.903137207 2.222419007e-38
-11.56245613 4.581206799 -1.906298518 2.222419007e-38
-11.60907745 4.516806126 -1.909345031 2.222419007e-38
-9.898121834 3.780840397 -1.624066591 2.240786106e-38
-9.90610981 3.713832378 -1.621578932 2.240786106e-38
-9.920557976 3.649443626 -1.620214343 2.240786106e-38
-9.91699791 3.578676701 -1.615987659 2.240786106e-38
-9.963310242 3.525903702 -1.619947791 2.240786106e-38
-9.984426498 3.46402669 -1.61986649 2.240786106e-38
-9.990192413 3.328191042 -1.613999248 2.240786106e-38
-10.00766087 3.265384674 -1.613529682 2.240786106e-38
-10.03476334 3.205703735 -1.61467576 2.240786106e-38
-10.039258 3.138868093 -1.612242222 2.240786106e-38
-10.13197517 3.09919405 -1.624024034 2.240786106e-38
-10.15447044 3.037531853 -1.624583483 2.240786106e-38
-10.42718601 3.048984766 -1.665170789 2.240786106e-38
-10.67090797 3.048733473 -1.701044917 2.240786106e-38
-11.98137856 3.343131781 -1.906615853 2.222419007e-38
-12.03971958 3.199404955 -1.909448504 2.222419007e-38
-12.03245354 3.117971897 -1.905207515 2.222419007e-38
-12.04218197 3.041112661 -1.903735638 2.222419007e-38
-12.07657909 2.970471382 -1.906234026 2.222419007e-38
-12.0761404 2.891303539 -1.903302908 2.222419007e-38
-12.08970737 2.815633059 -1.902662277 2.222419007e-38
-12.0979929 2.738816023 -1.901262045 2.222419007e-38
-12.167943 2.675641298 -1.909620762 2.222419007e-38
-12.16630936 2.596509933 -1.906806111 2.222419007e-38
-12.17060947 2.518834114 -1.90500176 2.222419007e-38
-12.17113304 2.440566063 -1.902689099 2.222419007e-38
-12.16517258 2.361192465 -1.899437785 2.222419007e-38
-12.15821743 2.281922102 -1.896109819 2.222419007e-38
-12.21362495 2.214171886 -1.902575135 2.222419007e-38
-12.21933365 2.137268782 -1.901375055 2.222419007e-38
-12.2496376 2.064597845 -1.904065728 2.222419007e-38
-12.23267937 1.984016895 -1.899485469 2.231602557e-38
-12.27491665 1.913024783 -1.904167771 2.231602557e-38
-12.2844677 1.836797595 -1.903855205 2.231602557e-38
-12.26664257 1.756636858 -1.899371505 2.231602557e-38
-12.32306099 1.687008262 -1.906455159 2.231602557e-38
-12.33512783 1.533504725 -1.905240536 2.231602557e-38
-12.35426331 1.458337188 -1.906768441 2.231602557e-38
-10.13731289 1.133134365 -1.563490272 2.249969656e-38
-10.09974098 1.065751314 -1.556646824 2.249969656e-38
-10.0825491 1.000934482 -1.553015947 2.249969656e-38
-10.09684181 0.9393299222 -1.554293513 2.249969656e-38
-10.05797195 0.872995317 -1.547448516 2.249969656e-38
-10.03138733 0.8082205653 -1.542557359 2.249969656e-38
-9.990942001 0.7428171635 -1.535604954 2.249969656e-38
-9.992249489 0.6807889938 -1.535128236 2.249969656e-38
-10.0166254 0.6202579141 -1.538258076 2.249969656e-38
-9.985181808 0.5563251972 -1.532869935 2.249969656e-38
-9.9457407 0.4924538434 -1.526317 2.249969656e-38
-9.967603683 0.4317602813 -1.529231071 2.249969656e-38
-9.94760704 0.3692762256 -1.525784254 2.249969656e-38
-9.954756737 0.307908088 -1.526561022 2.249969656e-38
-9.983029366 0.2469990551 -1.530634642 2.249969656e-38
-9.975007057 0.185069412 -1.529198766 2.249969656e-38
-10.00932121 0.1238073483 -1.534314275 2.249969656e-38
-9.999162674 0.06182676181 -1.532667637 2.249969656e-38
-10.02510357 1.94961267e-05 -1.613450646 2.249969656e-38
-10.09185219 -0.06241146848 -1.624225855 2.249969656e-38
-11.82964611 -0.146323666 -1.904020667 2.231602557e-38
-11.84804821 -0.2198686451 -1.90717268 2.231602557e-38
-10.20772171 -0.252553761 -1.64334476 2.249969656e-38
-10.23070908 -0.3164329827 -1.647330046 2.249969656e-38
-10.21856785 -0.3793274462 -1.645722032 2.249969656e-38
-11.81691647 -0.585121572 -1.904158473 2.231602557e-38
-11.85579109 -0.6605505943 -1.911045551 2.231602557e-38
-11.8088932 -0.8045763969 -1.904942393 2.231602557e-38
-11.81538677 -0.8784649372 -1.906832695 2.231602557e-38
-11.7921381 -0.9501156807 -1.903989911 2.231602557e-38
-11.81311798 -1.025349855 -1.908369064 2.231602557e-38
-11.78457355 -1.09633255 -1.904815555 2.231602557e-38
-11.76406574 -1.167863011 -1.902631283 2.231602557e-38
-11.75379086 -1.240292192 -1.902173877 2.231602557e-38
-11.77991295 -1.316767097 -1.907687187 2.231602557e-38
-11.77046967 -1.389434695 -1.907505393 2.231602557e-38
-11.7619791 -1.462252021 -1.907564759 2.231602557e-38
-11.71330547 -1.529816866 -1.901166558 2.231602557e-38
-11.71292496 -1.60351789 -1.90267694 2.231602557e-38
-11.69479561 -1.674776673 -1.901374578 2.231602557e-38
-11.7374382 -1.755008459 -1.910033345 2.231602557e-38
-11.68706512 -1.821439385 -1.9036448 2.231602557e-38
-11.72171879 -1.90117991 -1.91116488 2.231602557e-38
-11.68713284 -1.969835758 -1.90747726 2.231602557e-38
-11.66740036 -2.040770769 -1.906273723 2.231602557e-38
-11.63832378 -2.109926462 -1.903620005 2.231602557e-38
-11.63822556 -2.184333801 -1.905776739 2.231602557e-38
-11.6154995 -2.254544497 -1.904303551 2.231602557e-38
-11.46195984 -2.298382759 -1.881422997 2.231602557e-38
-11.18446636 -2.314761639 -1.838186145 2.231602557e-38
-10.90738297 -2.327867985 -1.794983745 2.240786106e-38
-10.70234013 -2.353404284 -1.763605595 2.240786106e-38
-10.62978077 -2.406417847 -1.75406146 2.240786106e-38
-10.60970783 -2.540240765 -1.755801439 2.240786106e-38
-10.60444546 -2.608413696 -1.757564783 2.240786106e-38
-10.55795383 -2.66631794 -1.752558708 2.240786106e-38
-10.53827477 -2.730818033 -1.752063632 2.240786106e-38
-10.52958393 -2.798157692 -1.753459215 2.240786106e-38
-10.54557896 -2.872344255 -1.759046435 2.240786106e-38
-10.46548271 -2.920182705 -1.748669147 2.240786106e-38
-10.45038033 -3.055804253 -1.752326608 2.240786106e-38
-10.47636604 -3.13382864 -1.759901524 2.240786106e-38
-10.43431568 -3.191643953 -1.756117344 2.240786106e-38
-10.38849258 -3.248060703 -1.751752615 2.240786106e-38
-10.39361572 -3.320340633 -1.756041884 2.240786106e-38
-10.3563242 -3.379140615 -1.753237605 2.240786106e-38
-10.37397194 -3.456026077 -1.759809136 2.240786106e-38
-10.30527306 -3.64692831 -1.759334564 2.240786106e-38
-10.26077175 -3.702711821 -1.755611897 2.240786106e-38
-10.2273159 -3.762310505 -1.753841639 2.240786106e-38
-10.20299339 -3.825144768 -1.753687024 2.240786106e-38
-10.20487213 -3.897997856 -1.758120418 2.240786106e-38
-10.16455364 -3.954797506 -1.755359411 2.240786106e-38
-10.09847546 -4.073622227 -1.752514839 2.240786106e-38
-10.10008335 -4.147075176 -1.757209182 2.240786106e-38
-10.05277061 -4.273680687 -1.758043885 2.240786106e-38
-10.01354599 -4.330334187 -1.755826712 2.240786106e-38
-9.975543976 -4.387298584 -1.753891826 2.240786106e-38
-9.963272095 -4.45561409 -1.756541848 2.240786106e-38
-9.900715828 -4.501355171 -1.750389576 2.240786106e-38
-9.90060997 -4.575407505 -1.755341172 2.240786106e-38
-9.870079041 -4.635584354 -1.754977584 2.240786106e-38
-9.864114761 -4.707469463 -1.759059429 2.240786106e-38
-9.803846359 -4.753354549 -1.753519893 2.240786106e-38
-9.798407555 -4.825740337 -1.757846475 2.240786106e-38
-9.739571571 -4.871880531 -1.752668858 2.240786106e-38
-9.741861343 -4.948563576 -1.758549452 2.240786106e-38
-9.699897766 -5.002931118 -1.756532192 2.240786106e-38
-9.660610199 -5.058565617 -1.755045056 2.240786106e-38
-9.671654701 -5.14081049 -1.76279366 2.240786106e-38
-9.601115227 -5.179718018 -1.755742669 2.240786106e-38
-9.577349663 -5.243617058 -1.757288337 2.240786106e-38
-9.480938911 -5.344316959 -1.751601458 2.240786106e-38
-9.474403381 -5.418122768 -1.756550193 2.240786106e-38
-9.439377785 -5.475793839 -1.756295204 2.240786106e-38
-9.407874107 -5.535572529 -1.756772995 2.240786106e-38
-9.383408546 -5.599562645 -1.758639336 2.240786106e-38
-9.363950729 -5.666758537 -1.761520863 2.240786106e-38
-9.334488869 -5.728105068 -1.762612939 2.240786106e-38
-9.267917633 -5.766458511 -1.756746054 2.240786106e-38
-9.233939171 -5.824845314 -1.757099271 2.240786106e-38
-9.186038017 -5.874364376 -1.754862905 2.240786106e-38
-9.188625336 -5.956400394 -1.762356281 2.240786106e-38
-9.13945961 -6.005116463 -1.760018945 2.240786106e-38
-9.08958149 -6.053167343 -1.757585645 2.240786106e-38
-9.034316063 -6.097324848 -1.754158139 2.240786106e-38
-9.001113892 -6.15628624 -1.755076647 2.240786106e-38
-8.931370735 -6.2721138 -1.756464481 2.240786106e-38
-8.902377129 -6.334310055 -1.758432508 2.240786106e-38
-8.867937088 -6.392791748 -1.759411335 2.240786106e-38
-8.827492714 -6.446977139 -1.759256601 2.240786106e-38
-8.764868736 -6.484725952 -1.754738212 2.240786106e-38
-8.754037857 -6.560855389 -1.760654211 2.240786106e-38
-8.715065002 -6.616209984 -1.761013746 2.240786106e-38
-8.663732529 -6.662107944 -1.758934736 2.240786106e-38
-8.628334999 -6.720211029 -1.760154366 2.240786106e-38
-8.565695763 -6.75692606 -1.755865097 2.240786106e-38
-8.543575287 -6.825613976 -1.759949207 2.240786106e-38
-8.497156143 -6.875067711 -1.759116054 2.240786106e-38
-8.475021362 -6.944313049 -1.763388276 2.240786106e-38
-8.407359123 -6.976219177 -1.758251548 2.240786106e-38
-8.354008675 -7.019629002 -1.756144524 2.240786106e-38
-8.330627441 -7.088315487 -1.76040566 2.240786106e-38
-8.284089088 -7.137505531 -1.7598629 2.240786106e-38
-8.267953873 -7.213205814 -1.765882492 2.240786106e-38
-8.192610741 -7.237194538 -1.759319901 2.240786106e-38
-8.169463158 -7.307173729 -1.764014482 2.240786106e-38
-8.118803978 -7.352722168 -1.762859464 2.240786106e-38
-8.05953598 -7.390296459 -1.75987947 2.240786106e-38
-8.037822723 -7.462429523 -1.765189886 2.240786106e-38
-7.993823528 -7.514167309 -1.765694618 2.240786106e-38
-7.914723873 -7.532545567 -1.75848031 2.240786106e-38
-7.83411026 -7.642712116 -1.761437893 2.240786106e-38
-7.771071911 -7.675609589 -1.757906795 2.240786106e-38
-7.737737656 -7.737737656 -1.761154413 2.240786106e-38
-7.688642979 -7.784335136 -1.760904074 2.240786106e-38
-7.621335506 -7.812231541 -1.756519794 2.240786106e-38
-7.584625721 -7.871416569 -1.759243846 2.240786106e-38
-7.543466091 -7.926271915 -1.761036396 2.240786106e-38
-7.498156071 -7.976840973 -1.761940718 2.240786106e-38
-7.486711979 -8.063959122 -1.770931482 2.240786106e-38
-7.368304253 -8.135984421 -1.766591549 2.240786106e-38
-7.322213173 -8.186275482 -1.767645001 2.240786106e-38
-7.241536617 -8.197562218 -1.760376334 2.240786106e-38
-7.208795547 -8.262933731 -1.764806271 2.240786106e-38
-7.134160995 -8.280194283 -1.75903666 2.240786106e-38
-7.041872501 -8.3804636 -1.761706591 2.240786106e-38
-6.996038914 -8.431231499 -1.763243794 2.240786106e-38
-6.951927185 -8.484322548 -1.765319705 2.240786106e-38
-6.852977276 -8.469859123 -1.753459692 2.240786106e-38
-6.842638969 -8.56491375 -1.764344215 2.240786106e-38
-6.768700123 -8.58061409 -1.75892067 2.240786106e-38
-6.687623978 -8.696907043 -1.765668392 2.240786106e-38
-6.606101513 -8.701727867 -1.758320093 2.240786106e-38
-6.57585001 -8.774014473 -1.764682055 2.240786106e-38
-6.490827084 -8.773187637 -1.75644803 2.240786106e-38
-6.406869888 -8.772604942 -1.748374701 2.240786106e-38
-6.236233234 -8.764605522 -1.731291771 2.240786106e-38
-6.090210438 -8.787370682 -1.720748067 2.240786106e-38
-6.014635086 -8.794103622 -1.714779615 2.240786106e-38
-5.955302715 -8.823858261 -1.713345885 2.240786106e-38
-5.877298832 -8.825521469 -1.706602693 2.240786106e-38
-5.771303654 -8.783703804 -1.691586852 2.240786106e-38
-5.715784073 -8.817552567 -1.691259742 2.240786106e-38
-5.628861427 -8.8021698 -1.681598306 2.240786106e-38
-5.554711819 -8.805802345 -1.675664783 2.240786106e-38
-5.476709366 -8.802236557 -1.668513656 2.249969656e-38
-5.4059062 -8.809492111 -1.663529515 2.249969656e-38
-5.350605488 -8.841467857 -1.663306832 2.249969656e-38
-5.253727436 -8.803943634 -1.650091052 2.249969656e-38
-5.113498211 -8.814860344 -1.640143871 2.249969656e-38
-4.959917068 -8.799109459 -1.625718236 2.249969656e-38
-4.895530701 -8.811795235 -1.622427464 2.249969656e-38
-4.845147133 -8.84961319 -1.623824596 2.249969656e-38
-4.670414448 -8.786765099 -1.601555467 2.249969656e-38
-4.618228912 -8.819791794 -1.602383614 2.249969656e-38
-4.566605091 -8.854006767 -1.603425026 2.249969656e-38
-4.484593868 -8.828489304 -1.593739748 2.249969656e-38
-4.410648823 -8.817527771 -1.586778998 2.249969656e-38
-4.349880695 -8.832235336 -1.584575295 2.249969656e-38
-4.26457119 -8.795838356 -1.573265553 2.249969656e-38
-4.212766647 -8.827682495 -1.574296594 2.249969656e-38
-4.150392056 -8.837061882 -1.571353197 2.249969656e-38
-4.060367584 -8.786278725 -1.557830334 2.249969656e-38
-4.004257202 -8.807488441 -1.557172418 2.249969656e-38
-3.931706905 -8.791824341 -1.550088763 2.249969656e-38
-3.860619307 -8.778093338 -1.543399334 2.249969656e-38
-3.82184577 -8.837852478 -1.549735665 2.249969656e-38
-3.754003048 -8.830408096 -1.544321418 2.249969656e-38
-3.675829411 -8.797216415 -1.534513831 2.249969656e-38
-3.610274792 -8.792920113 -1.52984345 2.249969656e-38
-3.551945925 -8.805464745 -1.528196931 2.249969656e-38
-3.497781038 -8.828105927 -1.528334856 2.249969656e-38
-3.426108122 -8.805836678 -1.520755887 2.249969656e-38
-3.362510681 -8.803074837 -1.516655922 2.249969656e-38
-3.237942457 -8.80202961 -1.509487987 2.249969656e-38
-3.181094408 -8.815320969 -1.508334875 2.259153205e-38
-3.055343866 -8.806469917 -1.50025177 2.259153205e-38
-2.993723392 -8.804325104 -1.496695042 2.259153205e-38
-2.93884778 -8.821650505 -1.496526599 2.259153205e-38
-2.87961483 -8.825532913 -1.494133949 2.259153205e-38
-2.814154387 -8.809298515 -1.488445401 2.259153205e-38
-2.7515769 -8.800733566 -1.484076381 2.259153205e-38
-2.638373852 -8.820338249 -1.481768489 2.259153205e-38
-2.567910671 -8.782096863 -1.472631693 2.259153205e-38
-2.507436752 -8.776456833 -1.469077826 2.259153205e-38
-2.462224245 -8.824398041 -1.474516869 2.259153205e-38
-2.395250559 -8.793972969 -1.466917276 2.259153205e-38
-2.339494705 -8.803720474 -1.466117382 2.259153205e-38
-2.284589767 -8.816476822 -1.465868831 2.259153205e-38
-2.22424984 -8.807513237 -1.462051511 2.259153205e-38
-2.167111158 -8.810401917 -1.460305691 2.259153205e-38
-2.108173132 -8.80526638 -1.457244158 2.259153205e-38
-2.050233126 -8.803526878 -1.454857826 2.259153205e-38
-1.99389255 -8.8077631 -1.453465581 2.259153205e-38
-1.934497952 -8.797559738 -1.449796915 2.259153205e-38
-1.878378749 -8.801222801 -1.448405266 2.259153205e-38
-1.825582147 -8.820922852 -1.449788213 2.259153205e-38
-1.773124218 -8.842664719 -1.451534152 2.259153205e-38
-1.7114259 -8.81740284 -1.445621014 2.259153205e-38
-1.659116626 -8.83987999 -1.447574615 2.259153205e-38
-1.603883147 -8.847237587 -1.447167277 2.259153205e-38
-1.54230535 -8.817828178 -1.440769792 2.259153205e-38
-1.491600275 -8.85011673 -1.444491744 2.259153205e-38
-1.426121235 -8.793222427 -1.433743238 2.259153205e-38
-1.376537681 -8.832679749 -1.438749671 2.259153205e-38
-1.322852135 -8.847417831 -1.439779639 2.259153205e-38
-1.268039227 -8.854887962 -1.439708233 2.259153205e-38
-1.208080173 -8.824730873 -1.433555126 2.259153205e-38
-1.149185538 -8.799164772 -1.428216219 2.259153205e-38
-1.091174126 -8.777206421 -1.423538566 2.259153205e-38
-1.030671477 -8.731435776 -1.415078163 2.259153205e-38
-0.9758877158 -8.730910301 -1.413996935 2.259153205e-38
-0.9196620584 -8.715447426 -1.410488486 2.259153205e-38
-0.8553950191 -8.616973877 -1.393720627 2.259153205e-38
-0.8004721999 -8.604369164 -1.390820265 2.259153205e-38
-0.7441095114 -8.572753906 -1.384958506 2.259153205e-38
-0.6880491972 -8.540797234 -1.379091501 2.259153205e-38
-0.635276258 -8.544830322 -1.379084587 2.259153205e-38
-0.5815439224 -8.535967827 -1.377038598 2.259153205e-38
-0.5256311297 -8.488618851 -1.368834615 2.259153205e-38
-0.473749131 -8.503230095 -1.370723128 2.259153205e-38
-0.4193997383 -8.470654488 -1.365010262 2.259153205e-38
-0.3656967878 -8.442688942 -1.360100269 2.259153205e-38
-0.2088052332 -8.439310074 -1.358706474 2.259153205e-38
-0.1033350155 -8.351433754 -1.344257355 2.259153205e-38
-0.0517151244 -8.366177559 -1.346556306 2.268336755e-38
-3.892703171e-05 -8.313393593 -1.338008761 2.268336755e-38
0.05148407072 -8.324077606 -1.33978653 2.268336755e-38
0.1030571833 -8.331989288 -1.341104388 2.268336755e-38
0.1540442705 -8.301447868 -1.336304665 2.268336755e-38
0.2050792426 -8.287757874 -1.334304929 2.268336755e-38
0.2560151517 -8.276565552 -1.332762241 2.268336755e-38
0.3067723215 -8.264017105 -1.330997586 2.268336755e-38
0.3580411077 -8.266149521 -1.331679106 2.268336755e-38
0.4075878561 -8.232289314 -1.326571465 2.268336755e-38
0.4564381838 -8.192587852 -1.320611835 2.268336755e-38
0.5067130923 -8.182994843 -1.319588304 2.268336755e-38
0.5562210083 -8.163407326 -1.316936255 2.268336755e-38
0.6064564586 -8.1572752 -1.316506982 2.268336755e-38
0.6577959061 -8.164088249 -1.318243623 2.268336755e-38
0.707757473 -8.154156685 -1.317330718 2.268336755e-38
0.7525618076 -8.089513779 -1.307600617 2.268336755e-38
0.8022111654 -8.08089447 -1.306997061 2.268336755e-38
0.852946043 -8.08320713 -1.308212042 2.268336755e-38
0.901280582 -8.06328392 -1.305832744 2.268336755e-38
0.9524408579 -8.068102837 -1.307562828 2.268336755e-38
1.000900507 -8.050899506 -1.305764556 2.268336755e-38
1.056303859 -8.087922096 -1.312770009 2.268336755e-38
1.100187778 -8.036248207 -1.305521607 2.268336755e-38
1.147274137 -8.01140213 -1.302581429 2.268336755e-38
1.19335103 -7.98113966 -1.298812747 2.268336755e-38
1.236953497 -7.936725616 -1.292809248 2.268336755e-38
1.292171478 -7.966859818 -1.298999906 2.268336755e-38
1.339362502 -7.946727276 -1.297082305 2.268336755e-38
1.38468504 -7.916618824 -1.293487072 2.268336755e-38
1.437270761 -7.92787075 -1.296798825 2.268336755e-38
1.476973891 -7.869416714 -1.288698316 2.268336755e-38
1.526419878 -7.864352226 -1.289380193 2.268336755e-38
1.585094452 -7.904968262 -1.297632813 2.268336755e-38
1.62239933 -7.839222908 -1.288482308 2.268336755e-38
1.663416028 -7.79413414 -1.282696962 2.268336755e-38
1.708060145 -7.767708778 -1.280029416 2.268336755e-38
1.765064359 -7.796743393 -1.286651731 2.268336755e-38
1.811919451 -7.780023575 -1.285730362 2.268336755e-38
1.848001122 -7.718500614 -1.277435541 2.268336755e-38
1.912397981 -7.774684906 -1.288621426 2.268336755e-38
1.956231117 -7.746257782 -1.285872459 2.268336755e-38
2.003035069 -7.729756355 -1.285155416 2.268336755e-38
2.042873383 -7.687510014 -1.280209184 2.268336755e-38
2.103671074 -7.72352457 -1.288407326 2.268336755e-38
2.135756493 -7.654397011 -1.279033542 2.268336755e-38
2.180965424 -7.633651733 -1.277763486 2.268336755e-38
2.233167887 -7.637207985 -1.280676246 2.268336755e-38
2.323805571 -7.597241402 -1.27870214 2.268336755e-38
2.35866785 -7.54388237 -1.272137046 2.268336755e-38
2.405870914 -7.531070232 -1.272460103 2.268336755e-38
2.450689554 -7.510913372 -1.271603584 2.268336755e-38
2.505417585 -7.520581245 -1.275797844 2.268336755e-38
2.550665617 -7.501373291 -1.275247455 2.268336755e-38
2.601906061 -7.499525547 -1.277656198 2.268336755e-38
2.642872334 -7.468215942 -1.275029302 2.268336755e-38
2.686438084 -7.444655895 -1.273847699 2.268336755e-38
2.742558956 -7.455365658 -1.278560877 2.268336755e-38
2.777819633 -7.409485817 -1.273620367 2.268336755e-38
2.837830544 -7.429452896 -1.279995441 2.268336755e-38
2.87539506 -7.3903265 -1.276305318 2.268336755e-38
2.925196171 -7.382948399 -1.278136015 2.268336755e-38
2.971165419 -7.365692616 -1.278287053 2.268336755e-38
3.01855278 -7.351625919 -1.27909708 2.268336755e-38
3.056286573 -7.314501286 -1.275894403 2.268336755e-38
3.110838175 -7.317488194 -1.279751301 2.268336755e-38
3.158200026 -7.303194523 -1.280658722 2.268336755e-38
3.254040718 -7.276423454 -1.282911301 2.268336755e-38
3.289380312 -7.235084534 -1.279210925 2.268336755e-38
3.336347342 -7.219606876 -1.280073285 2.268336755e-38
3.377556562 -7.191624165 -1.278802514 2.268336755e-38
3.432528734 -7.192673206 -1.282708764 2.268336755e-38
3.474856377 -7.166960716 -1.281955957 2.268336755e-38
3.533516645 -7.174682617 -1.287203312 2.268336755e-38
3.584682941 -7.166327477 -1.289652824 2.268336755e-38
3.666572809 -7.10889101 -1.287385345 2.268336755e-38
3.721906662 -7.107944012 -1.29137516 2.268336755e-38
3.755614758 -7.065705776 -1.287876964 2.268336755e-38
3.802056789 -7.047541618 -1.288782597 2.268336755e-38
3.884455442 -6.991992474 -1.287354231 2.268336755e-38
3.947486877 -7.003038406 -1.293847919 2.268336755e-38
4.002242088 -6.998575211 -1.297554135 2.268336755e-38
4.034036636 -6.95409441 -1.29397738 2.268336755e-38
4.130039215 -6.920858383 -1.297167182 2.268336755e-38
4.181875229 -6.91023159 -1.299989462 2.268336755e-38
4.260027885 -6.846780777 -1.297864318 2.268336755e-38
4.324271679 -6.85510397 -1.304483294 2.268336755e-38
4.390178204 -6.865236759 -1.3115623 2.268336755e-38
4.411775112 -6.805873871 -1.305410862 2.268336755e-38
4.471162319 -6.804882526 -1.310496807 2.268336755e-38
4.510098934 -6.772516251 -1.309634686 2.268336755e-38
4.535019875 -6.719501495 -1.304780245 2.268336755e-38
4.596557617 -6.720706463 -1.310475111 2.268336755e-38
4.650448799 -6.710076332 -1.313995957 2.268336755e-38
4.697450638 -6.689133167 -1.315554142 2.268336755e-38
4.742034435 -6.664587021 -1.316484809 2.268336755e-38
4.790305138 -6.645039082 -1.318430305 2.268336755e-38
4.845442295 -6.6346488 -1.3222996 2.268336755e-38
4.909070492 -6.635181427 -1.328416944 2.268336755e-38
4.948259354 -6.602480412 -1.327993989 2.268336755e-38
5.02571106 -6.535703659 -1.326954126 2.268336755e-38
5.09232378 -6.538306236 -1.333875418 2.268336755e-38
5.157818794 -6.538567066 -1.340363264 2.268336755e-38
5.21573782 -6.528553486 -1.344948411 2.268336755e-38
5.290975094 -6.539360046 -1.353854418 2.259153205e-38
5.337203026 -6.513662338 -1.355340123 2.259153205e-38
5.387525558 -6.492800713 -1.357918859 2.259153205e-38
5.457063198 -6.494432449 -1.365288734 2.259153205e-38
5.527766228 -6.496594906 -1.372911215 2.259153205e-38
5.612500668 -6.51411581 -1.383912683 2.259153205e-38
5.679199696 -6.509719372 -1.390411258 2.259153205e-38
5.888538361 -6.502087116 -1.411859393 2.259153205e-38
5.963217258 -6.50328064 -1.420149803 2.259153205e-38
6.028526783 -6.493424892 -1.426087618 2.259153205e-38
6.081936836 -6.470232487 -1.429213762 2.259153205e-38
6.144340038 -6.456165791 -1.434463143 2.259153205e-38
6.241172791 -6.477230549 -1.447702408 2.259153205e-38
6.274011612 -6.431159496 -1.446044326 2.259153205e-38
6.381826878 -6.461312294 -1.461670995 2.259153205e-38
6.47760725 -6.477665901 -1.474422216 2.259153205e-38
6.532305241 -6.452057838 -1.477729201 2.259153205e-38
6.582965851 -6.422179699 -1.480211377 2.259153205e-38
6.682841301 -6.439412117 -1.493672609 2.259153205e-38
6.745179176 -6.41951561 -1.498673916 2.259153205e-38
6.864618301 -6.452752113 -1.516305327 2.249969656e-38
6.914134502 -6.419225216 -1.518478632 2.249969656e-38
7.01521349 -6.432769299 -1.531925201 2.249969656e-38
7.072916508 -6.405638218 -1.535836339 2.249969656e-38
7.166017532 -6.409726143 -1.547434807 2.249969656e-38
7.237192154 -6.393268585 -1.554248571 2.249969656e-38
7.327549458 -6.392909527 -1.565110445 2.249969656e-38
7.437939167 -6.408538342 -1.580179691 2.249969656e-38
7.507958412 -6.388399601 -1.5866009 2.249969656e-38
7.58764267 -6.375745296 -1.595128894 2.249969656e-38
7.710045815 -6.397694588 -1.612517953 2.249969656e-38
7.823608398 -6.410606861 -1.62792933 2.249969656e-38
7.934343338 -6.419760227 -1.642681241 2.249969656e-38
8.152900696 -6.431402206 -1.671332121 2.240786106e-38
8.271708488 -6.442511559 -1.687465906 2.240786106e-38
8.399458885 -6.458956718 -1.705381274 2.240786106e-38
8.509551048 -6.460259914 -1.71955049 2.240786106e-38
8.613601685 -6.455681324 -1.732499719 2.240786106e-38
8.748650551 -6.47274828 -1.751522183 2.240786106e-38
8.88520813 -6.489197731 -1.770845413 2.240786106e-38
9.003960609 -6.490890503 -1.786456823 2.240786106e-38
9.094251633 -6.470836163 -1.796334863 2.240786106e-38
9.166332245 -6.437119484 -1.802675605 2.240786106e-38
9.172053337 -6.356785297 -1.796032906 2.240786106e-38
9.216555595 -6.303620815 -1.797080278 2.240786106e-38
9.263375282 -6.251936436 -1.79863739 2.240786106e-38
9.287298203 -6.184834957 -1.79581821 2.240786106e-38
9.350944519 -6.144064903 -1.800746799 2.240786106e-38
9.348126411 -6.059768677 -1.792951584 2.240786106e-38
9.382123947 -5.999725342 -1.792318344 2.240786106e-38
9.44934082 -5.960715294 -1.798085451 2.240786106e-38
9.502008438 -5.912114143 -1.801119685 2.240786106e-38
9.574813843 -5.79438448 -1.801190853 2.240786106e-38
9.597421646 -5.727288723 -1.798743129 2.240786106e-38
9.661592484 -5.684862137 -1.804150462 2.240786106e-38
9.681350708 -5.616148949 -1.801320672 2.240786106e-38
9.691389084 -5.542151451 -1.796777606 2.240786106e-38
9.737407684 -5.488857746 -1.798982143 2.240786106e-38
9.839749336 -5.387280941 -1.80543983 2.240786106e-38
9.86205864 -5.320468426 -1.803459287 2.240786106e-38
9.876883507 -5.249868393 -1.800199032 2.240786106e-38
9.98787117 -5.073504925 -1.802957058 2.240786106e-38
10.03809357 -5.021181583 -1.806389451 2.240786106e-38
10.03109455 -4.940337658 -1.799594283 2.240786106e-38
10.05882454 -4.876942635 -1.799125314 2.240786106e-38
10.11333466 -4.826344967 -1.803496718 2.240786106e-38
10.11261463 -4.749459743 -1.798101544 2.240786106e-38
10.14213181 -4.68694973 -1.798157096 2.240786106e-38
10.24816036 -4.583019257 -1.806770444 2.240786106e-38
10.29443836 -4.451776981 -1.805081606 2.240786106e-38
10.33126259 -4.316814899 -1.802039027 2.240786106e-38
10.33290291 -4.242655754 -1.797714949 2.240786106e-38
10.38066959 -4.187428951 -1.801484346 2.240786106e-38
10.42079353 -4.128874302 -1.803982139 2.240786106e-38
10.42489338 -4.056067467 -1.800317049 2.240786106e-38
10.47482491 -4.001119614 -1.804638743 2.240786106e-38
10.46670246 -3.924006939 -1.799018383 2.240786106e-38
10.50129223 -3.863073826 -1.800821662 2.240786106e-38
10.58382702 -3.819291353 -1.810889482 2.240786106e-38
10.58777618 -3.74684453 -1.80756259 2.240786106e-38
10.60175514 -3.6781919 -1.806034565 2.240786106e-38
10.61808395 -3.53735137 -1.801219463 2.240786106e-38
10.6202507 -3.465265274 -1.797917843 2.240786106e-38
10.71056938 -3.421591997 -1.80959475 2.240786106e-38
10.67375755 -3.337200403 -1.799853921 2.240786106e-38
10.70273018 -3.273745298 -1.801290274 2.240786106e-38
10.74783993 -3.215004206 -1.805506825 2.240786106e-38
10.73491096 -3.138938904 -1.800030947 2.240786106e-38
10.83337593 -3.095140934 -1.813300967 2.240786106e-38
10.79916954 -3.013252258 -1.804424167 2.240786106e-38
10.80625439 -2.943346262 -1.802529931 2.240786106e-38
11.01724911 -2.927733421 -1.834669948 2.231602557e-38
11.29914951 -2.927937746 -1.878563166 2.231602557e-38
11.59042358 -2.927037239 -1.923943162 2.231602557e-38
11.78187752 -2.898018599 -1.952711701 2.231602557e-38
11.82620049 -2.831501722 -1.9571172 2.231602557e-38
11.83081722 -2.755342484 -1.955021739 2.231602557e-38
11.88781071 -2.691217422 -1.961651444 2.231602557e-38
11.88903046 -2.614295483 -1.959148169 2.231602557e-38
11.91736794 -2.543379068 -1.961187363 2.231602557e-38
11.9165411 -2.466269016 -1.958504438 2.231602557e-38
11.91118813 -2.388418674 -1.955157995 2.231602557e-38
11.92578602 -2.314760923 -1.955169678 2.231602557e-38
11.97028065 -2.246621847 -1.960146427 2.231602557e-38
11.99691772 -2.098374128 -1.960108519 2.231602557e-38
12.00289345 -2.023035765 -1.959037423 2.231602557e-38
11.99026871 -1.944697618 -1.954945683 2.231602557e-38
12.0163765 -1.872739315 -1.957274437 2.231602557e-38
12.03378105 -1.723314285 -1.956490517 2.231602557e-38
12.05500317 -1.650321722 -1.958243012 2.231602557e-38
12.05264282 -1.574135303 -1.95623672 2.231602557e-38
12.06788158 -1.500281692 -1.957172036 2.231602557e-38
12.10683346 -1.42914927 -1.962017655 2.231602557e-38
12.07595348 -1.349814892 -1.955625653 2.231602557e-38
12.12421227 -1.27933526 -1.962121129 2.231602557e-38
12.10995579 -1.202176929 -1.958572507 2.231602557e-38
12.14662361 -1.129993558 -1.963327765 2.231602557e-38
11.9610014 -1.038169026 -1.932254553 2.231602557e-38
11.96029854 -0.9636109471 -1.931142688 2.231602557e-38
11.93396854 -0.8872581124 -1.925970197 2.231602557e-38
12.13921738 -0.8270602226 -1.9582268 2.231602557e-38
12.1435051 -0.7519313693 -1.95813179 2.231602557e-38
12.16316128 -0.6776738167 -1.960588217 2.231602557e-38
12.18337154 -0.6032401323 -1.963207006 2.231602557e-38
12.1468935 -0.5261716247 -1.956769824 2.231602557e-38
12.14906025 -0.4509925544 -1.956634402 2.231602557e-38
12.14742374 -0.3005354702 -1.955622196 2.231602557e-38
12.2099514 -0.2265644968 -1.965422869 2.231602557e-38
12.16871643 -0.1505244374 -1.958598137 2.231602557e-38
12.14404106 -0.07511501014 -1.954520106 2.231602557e-38
12.15932274 1.950910701e-05 -1.956934929 2.231602557e-38
12.1531086 0.07517036796 -1.955970526 2.231602557e-38
12.18577766 0.1507335454 -1.961338878 2.231602557e-38
12.14283466 0.2253154665 -1.954617262 2.231602557e-38
12.18435764 0.3014625311 -1.961566925 2.231602557e-38
12.14591408 0.375664115 -1.955710769 2.231602557e-38
12.0056715 0.5200422406 -1.934020638 2.231602557e-38
11.98608303 0.5934959054 -1.931415915 2.231602557e-38
12.14636135 0.6767269373 -1.957881451 2.231602557e-38
12.15571499 0.752690196 -1.9601053 2.231602557e-38
12.1254921 0.826120317 -1.956017852 2.231602557e-38
12.14760399 0.9031421542 -1.96044755 2.231602557e-38
12.12026691 0.9765192866 -1.956968784 2.231602557e-38
12.11464787 1.127015352 -1.958165884 2.231602557e-38
12.08758259 1.199956536 -1.954954505 2.231602557e-38
12.12726784 1.279682994 -1.962613344 2.231602557e-38
12.11184311 1.353838563 -1.961435556 2.231602557e-38
12.11081314 1.42960012 -1.962663889 2.231602557e-38
12.05247879 1.498348236 -1.954669356 2.231602557e-38
12.04001808 1.572498918 -1.954192281 2.231602557e-38
12.04273605 1.648653269 -1.956248999 2.231602557e-38
12.02487183 1.7220155 -1.955043912 2.231602557e-38
12.02606392 1.798163295 -1.957010031 2.231602557e-38
12.06476784 1.880300641 -1.965158463 2.231602557e-38
11.99969101 1.946242809 -1.95648098 2.231602557e-38
11.98839474 2.020575523 -1.956638694 2.231602557e-38
12.00729752 2.100165844 -1.961802959 2.231602557e-38
11.95310307 2.166998625 -1.955101728 2.231602557e-38
11.96445465 2.245565891 -1.959197044 2.231602557e-38
11.91348076 2.312372208 -1.953154206 2.231602557e-38
11.65436268 2.336945295 -1.913003325 2.231602557e-38
11.61847782 2.40457201 -1.909519196 2.231602557e-38
11.62831879 2.48170948 -1.913621783 2.231602557e-38
11.66311073 2.564658165 -1.921922565 2.231602557e-38
11.88735676 2.691116333 -1.961575866 2.231602557e-38
11.9041214 2.772417545 -1.967140555 2.231602557e-38
11.8370285 2.834079266 -1.958907604 2.231602557e-38
11.77526474 2.896425724 -1.951613426 2.231602557e-38
11.78983021 2.977411032 -1.957040906 2.231602557e-38
11.77665234 3.05172801 -1.957952499 2.231602557e-38
11.76562023 3.126609802 -1.959295392 2.231602557e-38
11.7379818 3.19709754 -1.95794332 2.231602557e-38
11.70693684 3.266555309 -1.956101537 2.231602557e-38
11.69746494 3.342018366 -1.957934976 2.231602557e-38
11.65952492 3.409327269 -1.955079436 2.231602557e-38
11.68814182 3.496315718 -1.963478088 2.231602557e-38
11.63102341 3.557704926 -1.957524419 2.231602557e-38
11.61039925 3.630868435 -1.958273888 2.231602557e-38
11.58169842 3.699877977 -1.956776261 2.231602557e-38
11.5567503 3.770837307 -1.956459761 2.231602557e-38
11.52061272 3.838001251 -1.954318762 2.231602557e-38
11.50630569 3.912467241 -1.955961943 2.231602557e-38
11.49113274 3.986777306 -1.957543612 2.231602557e-38
11.47102356 4.059422016 -1.95834887 2.231602557e-38
11.45001125 4.131814957 -1.959069014 2.231602557e-38
11.39498329 4.191855907 -1.954085231 2.231602557e-38
11.38378525 4.26783371 -1.956642151 2.231602557e-38
11.35915565 4.338879585 -1.956976533 2.231602557e-38
11.33459759 4.410046101 -1.957411885 2.231602557e-38
11.32085228 4.485477924 -1.959788203 2.231602557e-38
11.26036358 4.542261124 -1.954141498 2.231602557e-38
11.22292233 4.60811615 -1.952580452 2.231602557e-38
11.23409271 4.69409132 -1.959527612 2.231602557e-38
11.14365005 4.819010735 -1.953982711 2.231602557e-38
11.1614542 4.908842564 -1.962383151 2.231602557e-38
11.0685339 4.94990921 -1.951407433 2.231602557e-38
11.06233788 5.02944994 -1.955757856 2.231602557e-38
11.00733662 5.086841583 -1.951558948 2.231602557e-38
11.02352333 5.177293301 -1.960072517 2.231602557e-38
10.94916534 5.225256443 -1.952558279 2.231602557e-38
10.90804291 5.37221241 -1.956905961 2.231602557e-38
10.86699295 5.435741901 -1.955528021 2.231602557e-38
10.80913162 5.490641117 -1.951190472 2.231602557e-38
10.80662918 5.573751926 -1.956941366 2.231602557e-38
10.7364769 5.6219244 -1.950506449 2.231602557e-38
10.74399662 5.710830688 -1.958253264 2.231602557e-38
10.71839619 5.782466412 -1.960051775 2.231602557e-38
10.66948318 5.841504097 -1.957663298 2.231602557e-38
10.62779236 5.904439926 -1.956688166 2.231602557e-38
10.55162048 6.034121037 -1.956263542 2.231602557e-38
10.51064682 6.097279072 -1.955623746 2.231602557e-38
10.48531342 6.16955471 -1.957969069 2.231602557e-38
10.43155098 6.225103855 -1.955083609 2.231602557e-38
10.37575436 6.27913332 -1.951867104 2.231602557e-38
10.39810753 6.38079071 -1.963452935 2.231602557e-38
10.30672359 6.412811756 -1.953649879 2.231602557e-38
10.30260468 6.499001026 -1.960453868 2.231602557e-38
10.19931412 6.611544609 -1.956202388 2.231602557e-38
10.15893459 6.674977779 -1.956340432 2.231602557e-38
10.15649509 6.763664246 -1.963891387 2.231602557e-38
10.07459354 6.799210072 -1.956092238 2.231602557e-38
10.04114723 6.867645264 -1.957868099 2.231602557e-38
9.996753693 6.928368568 -1.957520127 2.231602557e-38
9.940055847 6.980482101 -1.954830289 2.231602557e-38
9.89527607 7.04082346 -1.954555511 2.231602557e-38
9.865671158 7.112039089 -1.957351208 2.231602557e-38
9.819748878 7.171748161 -1.957036614 2.231602557e-38
9.741501808 7.207309246 -1.950259805 2.231602557e-38
9.706066132 7.274383545 -1.952133298 2.231602557e-38
9.680533409 7.349140167 -1.956096172 2.231602557e-38
9.625600815 7.401759148 -1.954214692 2.231602557e-38
9.599580765 7.476665974 -1.958285689 2.231602557e-38
9.504048347 7.592935085 -1.957797408 2.231602557e-38
9.424785614 7.625630856 -1.951158762 2.231602557e-38
9.3303442 7.742099762 -1.95127809 2.231602557e-38
9.287220001 7.80378294 -1.952315211 2.231602557e-38
9.234599113 7.857560158 -1.951439381 2.231602557e-38
9.204145432 7.930242538 -1.95532155 2.231602557e-38
9.147413254 7.980471611 -1.953716397 2.231602557e-38
9.081485748 8.022384644 -1.950195074 2.231602557e-38
9.012440681 8.061161995 -1.946034431 2.231602557e-38
9.006271362 8.156464577 -1.955560088 2.231602557e-38
8.932486534 8.190786362 -1.950497985 2.231602557e-38
8.874149323 8.238902092 -1.948855996 2.231602557e-38
8.847923279 8.316966057 -1.954344869 2.231602557e-38
8.807056427 8.381770134 -1.956732273 2.231602557e-38
8.729138374 8.411147118 -1.95094192 2.231602557e-38
8.670083046 8.458251953 -1.949398994 2.231602557e-38
8.625990868 8.519994736 -1.951292872 2.231602557e-38
8.57883358 8.578911781 -1.952602029 2.231602557e-38
8.500016212 8.605776787 -1.946722269 2.231602557e-38
8.475646973 8.687907219 -1.953403115 2.231602557e-38
8.41967392 8.738045692 -1.952930331 2.231602557e-38
8.361968994 8.786239624 -1.952107072 2.231602557e-38
8.320266724 8.851402283 -1.955112576 2.231602557e-38
8.233453751 8.868294716 -1.947566867 2.231602557e-38
8.17876339 8.919403076 -1.947644472 2.231602557e-38
8.103175163 8.947390556 -1.942779422 2.231602557e-38
8.100710869 9.056663513 -1.955585122 2.231602557e-38
8.034656525 9.095350266 -1.953174114 2.231602557e-38
7.972259521 9.137988091 -1.951702356 2.231602557e-38
7.928078175 9.201626778 -1.954788566 2.231602557e-38
7.834443092 9.207471848 -1.945701599 2.231602557e-38
7.793809891 9.27538681 -1.949825644 2.231602557e-38
7.762111664 9.354474068 -1.956323147 2.231602557e-38
7.66984272 9.360476494 -1.947623014 2.231602557e-38
7.514939308 9.526560783 -1.952834249 2.231602557e-38
7.453315258 9.569570541 -1.952162623 2.231602557e-38
7.400079727 9.62348175 -1.953784347 2.231602557e-38
7.313780308 9.633903503 -1.946680188 2.231602557e-38
7.234892368 9.653327942 -1.941533685 2.231602557e-38
7.135034084 9.769616127 -1.947018623 2.231602557e-38
7.065147877 9.80059433 -1.944451332 2.231602557e-38
7.00050211 9.838599205 -1.943366289 2.231602557e-38
6.955607414 9.904661179 -1.947871923 2.231602557e-38
6.887660027 9.937983513 -1.946017623 2.231602557e-38
6.826622963 9.98118782 -1.946168661 2.231602557e-38
6.76370573 10.02166939 -1.945867896 2.231602557e-38
6.701855183 10.06370163 -1.945946693 2.231602557e-38
6.647211552 10.11664009 -1.948198438 2.231602557e-38
6.591004848 10.16761684 -1.950125217 2.231602557e-38
6.506803989 10.17495632 -1.943781018 2.231602557e-38
6.455174923 10.23316288 -1.94723475 2.231602557e-38
6.387007713 10.26524544 -1.945786238 2.231602557e-38
6.270625591 10.36172104 -1.949222565 2.231602557e-38
6.188556194 10.37036324 -1.943611622 2.231602557e-38
6.141928673 10.43845177 -1.949213982 2.231602557e-38
6.066608906 10.45767975 -1.945767045 2.231602557e-38
6.017213345 10.52183533 -1.950741172 2.231602557e-38
5.942241192 10.5416193 -1.947553158 2.231602557e-38
5.884625912 10.59210014 -1.950120211 2.231602557e-38
5.78924942 10.57388401 -1.940139413 2.231602557e-38
5.725628853 10.61297989 -1.940782785 2.231602557e-38
5.684047699 10.69364643 -1.949068666 2.231602557e-38
5.612531185 10.71858025 -1.947247744 2.231602557e-38
5.479539394 10.78716755 -1.947246194 2.231602557e-38
5.404051781 10.80349541 -1.944121361 2.231602557e-38
5.335647106 10.83371353 -1.943586469 2.231602557e-38
5.28137207 10.89297676 -1.948318481 2.231602557e-38
5.197230816 10.8903904 -1.942075253 2.231602557e-38
5.134172916 10.93170071 -1.94374156 2.231602557e-38
5.079282284 10.99094582 -1.948649406 2.231602557e-38
5.001425743 11.00061893 -1.944847226 2.231602557e-38
4.93637085 11.03823471 -1.946060181 2.231602557e-38
4.857827663 11.04537487 -1.941989422 2.231602557e-38
4.798368454 11.09580994 -1.945599675 2.231602557e-38
4.716037273 11.09335327 -1.94001472 2.231602557e-38
4.653348923 11.13659 -1.94250977 2.231602557e-38
4.58255291 11.16077518 -1.941747427 2.231602557e-38
4.508132935 11.17573261 -1.939457417 2.231602557e-38
4.442935467 11.21354771 -1.941215634 2.231602557e-38
4.368556499 11.22794056 -1.938993454 2.231602557e-38
4.296338081 11.24770927 -1.937784195 2.231602557e-38
4.230782509 11.28502655 -1.939666271 2.231602557e-38
4.158069134 11.3032093 -1.938334107 2.231602557e-38
4.015350342 11.34635735 -1.937068462 2.231602557e-38
3.95827508 11.40901089 -1.943552732 2.231602557e-38
3.876404047 11.40020657 -1.937930584 2.231602557e-38
3.804887056 11.42123222 -1.937467337 2.231602557e-38
3.742965221 11.47145844 -1.942021251 2.231602557e-38
3.667426586 11.48020935 -1.939627647 2.231602557e-38
3.602179527 11.52104187 -1.942727685 2.231602557e-38
3.530505419 11.54205513 -1.94255209 2.231602557e-38
3.452243567 11.54089928 -1.938730597 2.231602557e-38
3.379130602 11.55627346 -1.937762856 2.231602557e-38
3.303907156 11.56404495 -1.935603619 2.231602557e-38
3.235665798 11.59616947 -1.937595129 2.231602557e-38
3.162958622 11.61254883 -1.937020659 2.231602557e-38
3.098140955 11.65851784 -1.941456318 2.231602557e-38
3.021039486 11.65834522 -1.938279986 2.231602557e-38
2.948168516 11.67405128 -1.937826633 2.231602557e-38
2.886879444 11.73649883 -1.945188522 2.231602557e-38
2.799128056 11.69092751 -1.934729099 2.231602557e-38
2.733747005 11.73803806 -1.939692736 2.231602557e-38
2.662929296 11.76283169 -1.941030025 2.231602557e-38
2.580882311 11.73691559 -1.934080482 2.231602557e-38
2.510958195 11.76545715 -1.936191082 2.231602557e-38
2.438979626 11.78461742 -1.936821103 2.231602557e-38
2.365744591 11.79809475 -1.936599493 2.231602557e-38
2.296437502 11.83157825 -1.939724445 2.231602557e-38
2.147254944 11.84428024 -1.937305927 2.231602557e-38
2.07650733 11.87176609 -1.939658403 2.231602557e-38
2.001927853 11.87785053 -1.938598156 2.231602557e-38
1.923833966 11.86140537 -1.933936596 2.231602557e-38
1.854093432 11.89662075 -1.937771559 2.231602557e-38
1.776768804 11.88298512 -1.933725476 2.231602557e-38
1.708648682 11.93134403 -1.939838767 2.231602557e-38
1.628435135 11.89518833 -1.932284832 2.231602557e-38
1.557015657 11.92170334 -1.934984922 2.231602557e-38
1.482780576 11.92716217 -1.934347749 2.231602557e-38
1.41118443 11.95453072 -1.937337756 2.231602557e-38
1.335122108 11.9442215 -1.934291005 2.231602557e-38
1.262812614 11.96708679 -1.936692476 2.231602557e-38
1.186441064 11.95154762 -1.932955146 2.231602557e-38
1.113187313 11.96570969 -1.93409276 2.231602557e-38
1.040073514 11.98283005 -1.935785055 2.231602557e-38
0.9650337696 11.97739983 -1.933903933 2.231602557e-38
0.892250061 12.00110054 -1.936804175 2.231602557e-38
0.74338305 12.00529194 -1.935850024 2.231602557e-38
0.66763556 11.98285103 -1.931525111 2.231602557e-38
0.5947770476 12.01178932 -1.935563922 2.231602557e-38
0.5197851062 11.9994421 -1.933015585 2.231602557e-38
0.3714138865 12.00772762 -1.933459044 2.231602557e-38
0.2955037057 11.94328594 -1.922752142 2.231602557e-38
0.2228867412 12.01116943 -1.933420658 2.231602557e-38
0.1486029327 12.01428509 -1.933743834 2.231602557e-38
0.07433035225 12.02176666 -1.934835792 2.231602557e-38
3.911073873e-05 12.02088165 -1.934656501 2.231602557e-38
-0.07421519607 12.0042305 -1.932008982 2.231602557e-38
-0.1482463032 11.98443317 -1.928936481 2.231602557e-38
-0.2227882892 12.0079565 -1.932909369 2.231602557e-38
-0.2961197793 11.9676609 -1.926681042 2.231602557e-38
-0.3704733849 11.978158 -1.928704977 2.231602557e-38
-0.4457439482 12.00729561 -1.933807254 2.231602557e-38
-0.5199687481 12.00479603 -1.933878183 2.231602557e-38
-0.5941598415 11.99915409 -1.933524847 2.231602557e-38
-0.6686955094 12.00230885 -1.934662461 2.231602557e-38
