# .PCD v0.7 - Point Cloud Data file format
VERSION 0.7
FIELDS x y z rgb
SIZE 4 4 4 4
TYPE F F F F
COUNT 1 1 1 1
WIDTH 1134
HEIGHT 1
VIEWPOINT 0 0 0 1 0 0 0
POINTS 1134
DATA ascii
40.383862 -35.303864 -0.624908 0.000000
14.531348 14.503893 -1.800370 0.000000
9.017946 -11.728823 1.404707 0.000000
86.951149 10.994540 -1.976561 0.000000
17.505308 -9.273303 1.324823 0.000000
98.529152 -56.646423 13.129954 0.000000
38.949303 -28.164564 -1.392838 0.000000
18.618168 19.862370 -0.019801 0.000000
41.086330 17.200428 8.667228 0.000000
13.197660 11.350096 -1.953397 0.000000
122.978928 52.535980 -0.977557 0.000000
14.882678 19.206133 -0.695027 0.000000
36.029564 6.439319 -1.630635 0.000000
48.227585 -20.002731 -0.993571 0.000000
7.050874 -9.028663 0.061836 0.000000
52.044739 -20.503246 -0.038118 0.000000
37.978806 -30.125317 -1.292105 0.000000
8.452658 -6.235158 -1.792832 0.000000
60.363865 46.301647 2.251801 0.000000
7.930999 -4.652495 -1.793640 0.000000
16.056520 -2.560073 -1.967189 0.000000
18.433266 -15.512239 3.837258 0.000000
36.195999 6.983605 -1.226839 0.000000
11.488851 -0.414244 -1.559682 0.886275
18.888670 -15.220587 4.146575 0.000000
52.507492 -21.615282 0.408049 0.000000
8.049846 -10.356939 0.799954 0.000000
52.839806 -26.862679 1.572939 0.000000
21.833565 -10.414997 -0.994269 0.000000
36.024445 6.294235 -1.496074 0.000000
9.156348 -10.041040 0.529815 0.000000
24.768660 33.900635 3.026225 0.000000
87.799362 -26.784962 11.694535 0.000000
5.952513 -8.656429 -0.087345 0.000000
11.249801 6.252150 -1.456356 0.945098
40.784515 21.428429 0.960780 0.000000
18.176701 -11.475727 -1.811368 0.000000
26.377220 33.375446 4.050982 0.000000
58.848751 -24.461426 2.092404 0.000000
141.038315 -18.771414 3.330495 0.000000
18.349344 -17.724041 2.205015 0.000000
14.293550 12.082566 -1.955498 0.000000
14.901085 16.021242 -1.799183 0.000000
53.390354 -32.216766 2.734574 0.000000
9.067860 6.664368 -1.948017 0.000000
19.853964 -8.835491 1.176581 0.000000
10.871748 3.555595 -1.200464 0.000000
7.871470 -3.679035 -1.794646 0.000000
8.646307 -8.502873 -0.370243 0.000000
22.655254 -5.702680 1.053711 0.000000
49.581871 -28.007027 1.362610 0.000000
12.240854 8.629385 -1.954217 0.000000
21.317354 -10.213205 -1.820939 0.000000
14.213534 20.693991 0.194342 0.000000
14.396291 18.331316 -1.241031 0.000000
60.822060 -25.427332 2.748113 0.000000
11.376189 5.945226 -1.042342 0.968627
25.116850 -2.417143 -1.987996 0.000000
11.405357 7.562467 -1.054844 0.890196
41.068943 16.997143 5.655025 0.000000
9.572302 -2.390122 -1.952267 0.000000
9.635296 -11.517750 1.192586 0.000000
17.963282 0.962011 -1.972382 0.000000
6.785184 -7.565512 -0.809898 0.000000
6.391995 -7.880985 -0.590291 0.000000
8.040076 -8.901141 -0.085355 0.000000
12.103373 2.520682 -0.708297 0.000000
45.267479 -20.491444 -1.541746 0.000000
16.023664 12.695827 -1.959516 0.000000
125.434235 -19.774403 5.355569 0.000000
54.615944 0.259132 -2.055649 0.000000
147.155396 99.314064 4.001008 0.000000
7.073544 -9.224484 0.179426 0.000000
59.637489 51.632072 7.035783 0.000000
27.901636 -3.404742 -1.842461 0.000000
42.963791 4.087193 -2.029225 0.000000
17.276220 -8.938583 -1.812250 0.000000
36.663403 2.098429 -1.515977 1.000000
9.158115 4.776289 -1.950265 0.000000
19.511856 -10.834192 -1.815652 0.000000
14.086575 6.067275 -1.961451 0.000000
10.929457 2.764716 -1.145805 0.000000
86.863808 0.358526 -2.128953 0.000000
7.928539 -3.820756 -1.794631 0.000000
13.237003 18.664707 -1.020693 0.000000
39.079407 18.265545 4.241137 0.000000
37.007408 -0.742830 -0.793791 1.000000
15.888490 21.078869 0.474181 0.000000
49.899788 -28.170122 1.438710 0.000000
9.580846 -9.688308 0.284570 0.000000
41.017326 38.517357 5.147139 0.000000
25.642792 34.596252 3.392638 0.000000
12.811692 2.251970 -1.502231 0.000000
62.397980 -23.434349 2.205493 0.000000
11.929132 0.352672 -0.829502 0.882353
7.903843 -10.227460 0.731430 0.000000
20.399454 -12.519789 2.649960 0.000000
12.275292 5.796718 -1.656019 0.992157
50.197353 -26.133642 1.050740 0.000000
25.772720 2.421598 -1.990121 0.000000
11.496651 -0.152027 -1.464068 0.882353
5.710817 -7.379306 -0.847692 0.000000
7.840291 -1.719730 -1.948663 0.000000
40.422455 17.814552 7.650896 0.000000
11.639834 0.294730 -0.962086 0.882353
95.306808 -16.304947 -1.040621 0.000000
17.530155 -12.579546 -1.808103 0.000000
36.650528 5.653636 -0.420768 0.000000
12.718504 -8.657242 -1.800813 0.000000
82.539864 -17.561192 -0.223879 0.000000
128.217056 -24.206404 4.702693 0.000000
7.278800 -6.987113 -1.196394 0.000000
21.375011 -13.886167 1.725106 0.000000
21.233927 -13.136828 1.661112 0.000000
8.251176 3.770116 -1.948870 0.000000
41.357609 18.515751 -0.623355 0.000000
76.720482 -75.441208 11.684714 0.000000
20.340931 -10.064054 4.109222 0.000000
7.352082 1.383382 -1.948086 0.000000
12.463058 13.809855 -1.795263 0.000000
49.804657 -27.682571 1.323896 0.000000
5.344156 -8.093452 -0.387166 0.000000
7.674549 -3.456565 -1.794397 0.000000
54.024837 -46.169819 2.864343 0.000000
11.546643 6.108209 -0.924429 0.964706
60.748013 -21.301620 1.124891 0.000000
21.978065 19.857656 -0.371245 0.000000
18.693478 -7.128555 -1.817665 0.000000
5.685034 -8.092458 -0.411807 0.000000
10.850127 2.927950 -1.318452 0.000000
6.735974 -7.799948 -0.663788 0.000000
39.743572 18.248796 7.422836 0.000000
24.257008 37.930157 2.687394 0.000000
10.355391 -8.228023 -0.858690 0.000000
8.247557 -9.557541 0.299496 0.000000
9.275157 15.318634 -0.711748 0.000000
42.025471 4.933434 -2.026988 0.000000
22.878948 -14.006560 2.129106 0.000000
17.656534 20.672113 0.295537 0.000000
19.123581 15.100725 -1.335447 0.000000
6.298541 -7.424478 -0.861527 0.000000
40.136665 38.200699 6.422335 0.000000
15.210821 21.544550 0.620091 0.000000
21.068968 -6.892509 3.403186 0.000000
8.447269 -7.653000 -0.891577 0.000000
17.513803 21.606783 0.821599 0.000000
6.709916 -8.922719 0.021364 0.000000
62.698662 -18.079334 0.030638 0.000000
42.353600 -37.964973 -0.114165 0.000000
57.869102 -20.462250 0.568827 0.000000
14.052892 16.868544 -1.795267 0.000000
48.092606 -23.708817 0.197975 0.000000
10.800263 1.179754 -1.956043 0.000000
7.419513 -9.566542 0.363259 0.000000
45.394089 31.152756 -0.171982 0.000000
11.319601 3.151844 -0.473497 0.000000
8.111959 -10.118049 0.650171 0.000000
13.756262 2.267874 -1.307662 0.000000
26.278240 2.429670 -1.991274 0.000000
11.078206 3.297525 -0.724410 0.000000
25.053427 34.017826 3.077310 0.000000
23.018581 -5.976655 -1.828894 0.000000
11.528955 0.144089 -1.263149 0.882353
6.743501 -9.463318 0.348073 0.000000
87.922226 -13.290313 -1.974916 0.000000
112.728989 0.134781 -0.759810 0.890196
56.992500 -45.739525 3.794703 0.000000
59.306358 52.263805 3.584039 0.000000
70.378227 -26.145994 3.697487 0.000000
51.874241 -27.731897 1.606894 0.000000
37.095051 -7.240345 6.084706 0.000000
14.488935 5.844613 -1.089543 1.000000
34.056232 36.744064 2.532543 0.000000
10.894360 3.661664 -1.172267 0.000000
7.964680 -0.640013 -1.949450 0.000000
9.320019 -7.192919 -1.370157 0.000000
73.387077 -42.950798 9.083381 0.000000
41.504890 -35.476028 -0.326607 0.000000
27.606953 -5.127252 -1.840094 0.000000
139.306580 -18.192142 3.734442 0.000000
18.942501 -7.230900 1.466529 0.000000
17.079216 -3.523576 -1.816631 0.000000
15.814713 2.062737 -1.967396 0.000000
140.274506 -20.999874 7.101138 0.000000
63.026493 -38.731804 5.489353 0.000000
15.367756 1.023025 -1.966472 0.000000
94.239502 18.868162 -1.176288 0.000000
6.967992 -7.602665 -0.800126 0.000000
19.720501 -9.370886 2.885432 0.000000
21.695051 -10.341681 -1.359590 0.000000
7.960987 4.828517 -1.947145 0.000000
20.554983 -9.414512 3.483696 0.000000
36.124226 -1.133519 -1.202693 1.000000
13.500243 2.354608 -0.897016 0.000000
11.174375 2.475500 -1.252766 0.000000
66.257439 -21.105623 1.456507 0.000000
6.241330 -7.189838 -1.000284 0.000000
19.473236 17.452084 -1.294170 0.000000
32.983162 1.630225 -2.006572 0.000000
73.561775 -76.233688 8.521614 0.000000
26.353054 32.259129 2.729074 0.000000
60.211414 -34.958687 8.414800 0.000000
63.901028 0.973570 -1.104596 0.823529
52.712914 -48.825657 2.360130 0.000000
49.209980 -27.343033 1.174321 0.000000
49.090744 30.076408 -0.552787 0.000000
32.014690 8.813111 -0.915331 1.000000
50.976494 -20.816322 -0.155325 0.000000
13.693082 22.132959 0.322339 0.000000
8.086081 2.744632 -1.949195 0.000000
13.006386 5.738096 -1.959046 0.000000
49.773834 -17.728554 -1.411911 0.000000
7.960454 -4.433281 -1.793992 0.000000
56.166134 29.481295 -1.064769 0.000000
12.294506 2.171326 -1.959283 0.000000
8.914819 -8.934849 -0.126285 0.000000
7.831467 -1.439158 -1.948804 0.000000
8.559932 2.591531 -1.950410 0.000000
22.672407 19.289585 -0.693781 0.000000
10.938155 -5.233522 -1.800572 0.000000
13.913744 12.661019 -1.953630 0.000000
9.827730 9.767792 -1.945945 0.000000
20.202221 -8.507671 1.691676 0.000000
7.593791 -3.055999 -1.794607 0.000000
6.049730 -6.896957 -1.165033 0.000000
9.687340 -8.327806 -0.664642 0.000000
57.555962 48.379604 1.520265 0.000000
59.018238 7.227710 -2.065560 0.000000
13.030466 21.711967 0.066308 0.000000
50.007160 -40.077675 1.873742 0.000000
13.679262 5.585354 -1.960815 0.000000
139.515182 -28.157839 2.400549 0.000000
48.521393 -18.544334 -1.411331 0.000000
22.184763 -12.475417 -1.820465 0.000000
139.667984 -20.161322 3.211604 0.000000
6.272502 -6.925878 -1.163077 0.000000
69.521225 74.502678 8.305198 0.000000
62.175079 -17.309155 -0.340749 0.000000
34.179920 14.903868 -0.173784 0.000000
21.319481 -9.318232 4.550549 0.000000
81.321068 -18.372524 -0.010860 0.000000
15.609662 13.887351 -1.804367 0.000000
80.629112 -15.018410 -1.873137 0.000000
16.893787 21.775593 0.903408 0.000000
59.515335 -4.888967 -2.065661 0.000000
11.504055 0.144423 -1.598719 0.878431
49.634045 -7.961597 -2.041819 0.000000
19.633892 -11.259331 4.365483 0.000000
66.872490 -25.676645 3.595117 0.000000
7.637488 -2.899637 -1.794863 0.000000
36.737408 2.727133 -1.136044 1.000000
13.759501 20.596619 0.054417 0.000000
29.039339 33.101830 4.878411 0.000000
20.418808 -11.085943 2.124551 0.000000
149.527237 91.138519 10.114412 0.000000
10.827256 2.984585 -1.445945 0.000000
84.402435 -12.511317 -1.967192 0.000000
17.303034 19.304659 -0.568156 0.000000
72.098328 -18.043129 0.007846 0.000000
11.949673 -0.748320 -1.958498 0.000000
8.532699 5.773209 -1.947612 0.000000
40.626469 38.520714 6.642636 0.000000
21.497456 14.921152 -1.249657 0.000000
14.037526 20.281490 -0.010607 0.000000
38.690022 17.255133 1.535060 0.000000
46.930241 -38.474869 1.070662 0.000000
20.041470 -14.640325 -1.348096 0.000000
84.040802 28.167461 -1.185575 0.000000
45.766449 32.223339 10.986542 0.000000
19.776381 -10.608594 2.263325 0.000000
43.309200 -32.764969 0.082059 0.000000
11.285127 2.868774 -0.576209 0.000000
10.127932 11.840610 -1.943659 0.000000
12.893562 1.164785 -1.960826 0.000000
36.478012 5.639596 -0.459443 0.000000
9.268265 4.654981 -1.950652 0.000000
39.332588 16.257444 3.351714 0.000000
17.691353 19.274115 -0.521090 0.000000
10.293636 -11.931862 1.185282 0.000000
6.585408 -8.032949 -0.511412 0.000000
114.099152 85.162483 5.672237 0.000000
72.543358 -21.640333 1.759415 0.000000
12.518758 9.460108 -1.953965 0.000000
14.196333 -8.247456 -1.805235 0.000000
18.164843 20.045591 0.012057 0.000000
11.511867 -0.719700 -1.299232 0.890196
12.549581 11.712480 -1.951047 0.000000
11.946460 -0.471472 -0.726931 0.894118
35.670315 14.660545 -0.700327 0.000000
9.893228 -7.759223 -1.091612 0.000000
12.284950 20.301727 -0.395962 0.000000
41.716705 -33.773834 -0.296591 0.000000
53.445854 -24.027122 1.053005 0.000000
19.815399 -10.592043 1.885549 0.000000
22.133514 16.957758 -1.457227 0.000000
11.501317 -0.732838 -1.507307 0.890196
14.123249 19.316278 -0.618794 0.000000
60.782967 -33.971786 4.776558 0.000000
16.498293 15.135181 -1.535696 0.000000
20.309399 1.532924 -1.977715 0.000000
15.691237 24.400848 1.280145 0.000000
68.832359 -17.980642 -0.168774 0.000000
10.051345 -5.006248 -1.798609 0.000000
11.223970 3.160915 -0.576447 0.000000
145.225876 77.746712 10.760755 0.000000
7.377627 -9.588752 0.379728 0.000000
8.348320 -8.206533 -0.529608 0.000000
58.564117 52.834976 5.745621 0.000000
98.930222 -57.533352 13.218441 0.000000
7.348073 -5.161505 -1.791414 0.000000
15.162811 19.467762 -0.532956 0.000000
58.314934 52.715992 2.763304 0.000000
13.164940 0.991128 -1.961454 0.000000
11.970748 5.865429 -1.094737 0.984314
18.987810 -8.596565 0.977777 0.000000
11.194198 2.907970 -0.651977 0.000000
19.064787 -4.474245 -1.820660 0.000000
17.106808 -15.619148 3.020073 0.000000
17.772478 2.564236 -1.971797 0.000000
6.067699 -9.795120 0.597782 0.000000
26.900682 17.468079 -1.513790 0.000000
11.494174 -0.252829 -1.426516 0.886275
7.124988 -9.595863 0.401863 0.000000
12.036950 -1.103218 -1.958589 0.000000
5.903695 -7.704957 -0.663070 0.000000
12.213404 20.664635 -0.347649 0.000000
22.642471 -8.968198 -1.825496 0.000000
21.862135 -9.982159 -0.512948 0.000000
18.136278 1.108696 -1.972776 0.000000
21.020813 -5.920334 2.132514 0.000000
17.226013 -15.145396 3.429990 0.000000
7.128255 -8.767655 -0.102469 0.000000
19.717783 -7.327621 1.629911 0.000000
50.189621 -18.235432 -1.160770 0.000000
50.392456 -25.194019 0.879407 0.000000
60.452663 0.157460 -2.068903 0.000000
62.745869 -5.417514 -2.072860 0.000000
16.253796 22.684326 1.111888 0.000000
40.471191 15.557410 0.889945 0.000000
56.552460 27.170828 -1.455337 0.000000
147.882401 -24.323772 2.569063 0.000000
19.620962 -7.069964 1.635536 0.000000
12.040638 12.855280 -1.947866 0.000000
10.973199 -2.424408 -1.955513 0.000000
59.071083 52.881981 5.796831 0.000000
12.887526 13.586166 -1.796880 0.000000
34.061047 39.011395 5.291894 0.000000
20.955086 -6.216983 2.096747 0.000000
6.068574 -8.946721 0.081186 0.000000
23.629353 -3.254671 -1.953290 0.000000
58.979538 -20.179478 0.522055 0.000000
5.960377 -7.019353 -1.084281 0.000000
20.210110 2.779633 -1.977351 0.000000
9.010751 4.943541 -1.949733 0.000000
16.634079 -15.258325 0.043915 0.000000
18.822018 -10.179212 3.339048 0.000000
21.658791 1.407062 -1.980794 0.000000
39.843414 19.463367 2.314477 0.000000
5.261384 -8.220252 -0.304129 0.000000
11.400138 2.360861 -1.281436 0.000000
21.835869 -10.010126 0.357644 0.000000
46.560619 17.799501 0.165758 0.000000
36.048447 5.510104 -1.714205 0.000000
40.947124 15.700124 2.546961 0.000000
49.261665 29.897144 -0.594832 0.000000
10.850920 3.321108 -1.220211 0.000000
10.893058 11.948130 -1.945817 0.000000
7.008424 -7.052129 -1.137896 0.000000
96.657410 -30.144798 19.805548 0.000000
10.852688 3.609802 -1.390541 0.000000
37.983906 -18.606899 -2.005599 0.000000
13.919301 18.594318 -1.071223 0.000000
13.760859 6.052324 -0.781368 1.000000
6.928495 -8.764591 -0.090272 0.000000
12.195417 -2.077737 -1.958538 0.000000
28.108818 -15.958008 -1.831325 0.000000
14.858964 -9.524673 -1.805283 0.000000
19.756699 -9.211075 2.852277 0.000000
8.912057 -5.911881 -1.794528 0.000000
7.188727 -9.486055 0.330530 0.000000
123.115761 -23.074373 4.531881 0.000000
12.289452 17.518427 -1.733366 0.000000
8.719887 -8.517440 -0.366543 0.000000
8.296624 -7.667122 -0.854103 0.000000
14.064771 19.075569 -0.769731 0.000000
11.515070 -0.375108 -1.155176 0.890196
9.163887 -6.557004 -1.774738 0.000000
15.857471 -10.574162 -1.806481 0.000000
57.459061 -55.984711 3.011317 0.000000
6.794562 -9.893608 0.606419 0.000000
8.818070 7.634766 -1.946060 0.000000
49.505100 -30.307575 1.577587 0.000000
8.755295 -8.003004 -0.710664 0.000000
59.571922 46.639965 5.354606 0.000000
49.874828 -16.101919 -1.884589 0.000000
143.867569 -20.135784 0.908088 0.000000
15.860737 -8.658631 -1.808992 0.000000
8.788241 -0.532079 -1.951358 0.000000
18.875093 20.519800 0.409977 0.000000
37.045090 -7.302275 -0.875626 0.000000
20.233639 -1.880538 -1.977033 0.000000
23.508698 -6.358565 1.679167 0.000000
68.827286 -18.152426 -0.077659 0.000000
7.143919 -9.202335 0.160989 0.000000
50.895416 -16.803585 -1.483635 0.000000
60.158173 -13.716432 -1.747899 0.000000
18.974306 -13.513376 4.003347 0.000000
74.381981 -74.070587 7.729544 0.000000
12.384004 -0.571106 -0.564713 0.894118
34.993801 14.674109 -1.390723 0.000000
6.042592 -7.711535 -0.668838 0.000000
46.931469 -20.603312 -1.104093 0.000000
14.895486 -3.668229 -1.811455 0.000000
34.195030 14.786141 0.016147 0.000000
57.948040 52.966873 6.685638 0.000000
12.320149 11.030044 -1.951347 0.000000
61.679657 2.434601 -1.502063 0.819608
13.938977 15.339906 -1.059917 0.000000
10.838943 -6.777458 -1.798426 0.000000
50.549423 29.413778 -0.649873 0.000000
21.987646 -13.365741 -1.818819 0.000000
39.072414 20.826412 1.374285 0.000000
71.467537 14.940136 -1.304512 0.000000
6.655049 -7.329931 -0.944100 0.000000
11.895592 -4.840687 -1.803345 0.000000
146.112259 68.075417 -0.749163 0.000000
7.212053 -7.612736 -0.811134 0.000000
61.307491 52.419594 9.821232 0.000000
12.089617 5.798866 -1.370276 0.988235
6.452423 -7.335771 -0.926316 0.000000
41.256348 17.566664 4.806109 0.000000
10.023173 -7.983566 -0.962959 0.000000
22.481323 -6.587313 1.207335 0.000000
126.489166 -17.674585 -0.375428 0.000000
7.535413 -8.325647 -0.400078 0.000000
5.558558 -7.139464 -0.982950 0.000000
14.960022 1.255387 -1.965534 0.000000
6.819018 -8.480925 -0.255218 0.000000
15.929494 20.235146 -0.057084 0.000000
40.662178 -23.745523 -1.853817 0.000000
12.223153 2.648339 -0.518944 0.000000
7.242608 -9.630395 0.414592 0.000000
34.009590 -25.856216 -1.928758 0.000000
9.243989 -10.470765 0.785157 0.000000
12.083644 6.244676 -0.762943 0.972549
51.293270 -10.324744 -1.910074 0.000000
10.882067 3.100927 -1.001195 0.000000
21.685894 -10.238067 -1.644050 0.000000
75.852928 -76.437408 14.016747 0.000000
10.727004 -2.065892 -1.955154 0.000000
19.686085 1.599081 -1.976292 0.000000
8.102252 -6.978310 -1.287183 0.000000
24.859709 -5.686640 -1.833391 0.000000
146.164246 -158.875839 14.224504 0.000000
30.220028 -10.355707 -1.842506 0.000000
7.537362 -10.154135 0.712623 0.000000
13.509027 20.599117 -0.012316 0.000000
48.096069 30.567965 5.879462 0.000000
27.027945 -5.896062 -1.838306 0.000000
128.261139 73.449837 -0.307609 0.000000
37.812050 -24.231045 -1.845749 0.000000
24.029331 18.042877 -1.041645 0.000000
11.596139 -3.267958 -1.803994 0.000000
40.715023 15.256558 0.942684 0.000000
39.059441 1.563887 -1.433463 1.000000
14.514304 20.205975 -0.062518 0.000000
21.199757 -8.551769 3.954704 0.000000
18.433201 -9.374406 1.360161 0.000000
11.501369 0.061949 -1.546883 0.882353
11.545216 2.587717 -0.702433 0.000000
11.531172 0.050765 -1.183483 0.882353
41.632538 -29.169529 -0.455915 0.000000
86.211403 -27.419292 10.822648 0.000000
7.165249 -7.278808 -1.010995 0.000000
11.247600 6.181321 -1.457624 0.949020
11.427199 3.176558 -0.456863 0.000000
75.692650 -8.264446 -1.949022 0.000000
50.160042 -18.237930 -1.166036 0.000000
5.773087 -7.905134 -0.532035 0.000000
55.540142 -17.621479 -0.612273 0.000000
12.677465 -0.398466 -1.960236 0.000000
49.029533 -34.548725 1.660665 0.000000
8.579531 0.162281 -1.951007 0.000000
66.250801 12.265594 0.757589 0.000000
64.808365 -7.077298 -2.076986 0.000000
13.119743 0.880834 -1.961355 0.000000
12.823548 2.080127 -1.960524 0.000000
59.433327 51.766918 5.696272 0.000000
47.047623 -23.075363 -0.247921 0.000000
19.894556 -11.037849 -1.816380 0.000000
38.980583 -29.333538 -1.129197 0.000000
9.816005 5.487846 -1.951266 0.000000
9.851475 7.385063 -1.949250 0.000000
28.873398 41.181267 4.233549 0.000000
10.534698 2.494223 -1.955095 0.000000
37.793179 20.483131 1.619248 0.000000
13.074875 20.982187 -0.057530 0.000000
21.106064 -12.415494 1.687321 0.000000
11.333853 -6.718848 -1.799792 0.000000
67.060989 -26.754887 3.972879 0.000000
56.065426 -36.088985 3.560299 0.000000
19.841303 21.261852 0.535848 0.000000
69.101265 -22.078564 1.888124 0.000000
145.944733 -15.066551 -1.090057 0.000000
9.403494 -10.523057 0.805762 0.000000
52.923656 -18.986052 -0.353421 0.000000
115.774223 -18.287886 -0.023919 0.000000
21.809269 -10.027332 0.348012 0.000000
18.101500 -11.795260 2.860993 0.000000
14.639955 2.258075 -1.062172 0.000000
10.887401 2.848650 -1.242973 0.000000
61.780300 -1.362634 -0.524137 0.356863
44.162991 -34.026703 0.322055 0.000000
21.233276 21.440447 0.348680 0.000000
41.481922 15.661280 1.436135 0.000000
18.183313 -14.303008 2.323617 0.000000
5.597804 -7.966702 -0.482208 0.000000
76.510147 -25.421625 9.581014 0.000000
21.835379 -7.934074 2.494243 0.000000
48.235207 26.483982 -1.696850 0.000000
21.696169 -10.249868 -0.876046 0.000000
11.518926 -0.212800 -1.112241 0.886275
14.457561 19.246185 -0.665943 0.000000
26.848848 33.624561 3.268230 0.000000
22.195127 -5.603172 -1.827222 0.000000
20.352852 -9.376081 3.287496 0.000000
40.722214 20.511616 5.904098 0.000000
13.488803 19.788506 -0.315810 0.000000
20.296352 -9.223711 -1.819481 0.000000
12.964621 0.037688 -0.506878 0.886275
66.586258 -16.413948 -1.024572 0.000000
21.243372 19.290760 -0.447060 0.000000
83.930077 -14.578467 -1.536236 0.000000
38.942463 -32.575958 -0.993238 0.000000
52.523479 -26.815737 1.500295 0.000000
10.326623 -8.375756 -0.752414 0.000000
48.728222 31.943451 -0.014937 0.000000
11.587658 -0.387697 -0.964912 0.890196
11.240567 2.404945 -1.453104 0.000000
8.156834 -10.795607 1.059432 0.000000
10.529757 1.661300 -1.955341 0.000000
12.938793 19.558287 -0.455611 0.000000
9.660784 -7.671128 -1.107943 0.000000
21.799295 -10.020165 -0.748698 0.000000
102.777252 10.724726 -2.012800 0.000000
125.237762 -20.298985 6.658366 0.000000
144.591156 -14.952736 -1.314591 0.000000
11.690220 -6.740610 -1.800684 0.000000
61.768890 -1.964026 -0.483787 0.360784
12.369855 0.024869 -0.567137 0.886275
10.457043 2.452977 -1.954930 0.000000
22.295397 -6.103769 -1.827104 0.000000
58.650501 7.000965 -2.064750 0.000000
113.233894 -23.612970 9.094353 0.000000
10.100935 -7.230098 -1.491877 0.000000
11.558300 2.334903 -1.351396 0.000000
33.568535 37.683910 4.741131 0.000000
37.084469 -7.066381 -0.234818 0.000000
54.762306 -27.905451 2.318204 0.000000
10.975387 3.753384 -0.933551 0.000000
59.210320 -14.515761 -1.571605 0.000000
37.845848 21.091381 0.910086 0.000000
60.006588 -32.189991 4.285636 0.000000
9.190360 6.926012 -1.948014 0.000000
123.682320 -24.346367 6.025165 0.000000
12.543786 2.379476 -0.883017 0.000000
8.142732 2.916074 -1.949225 0.000000
12.124455 -2.071618 -1.958378 0.000000
9.007648 -11.572286 1.347275 0.000000
12.143300 12.555273 -1.948627 0.000000
20.450825 17.051809 -1.365637 0.000000
45.676247 -41.808468 0.569090 0.000000
58.273457 -14.056216 -1.796969 0.000000
39.896297 -27.231970 -1.310412 0.000000
76.560326 14.914482 -0.887705 0.000000
14.778402 -9.839124 -1.804639 0.000000
34.213638 14.903745 2.911410 0.000000
15.891438 -8.632508 -1.809102 0.000000
15.705410 20.842178 0.326917 0.000000
6.874938 -8.652702 -0.154604 0.000000
44.324551 33.129665 8.496464 0.000000
10.832008 3.275588 -1.385791 0.000000
29.635267 3.333363 -1.998852 0.000000
9.791531 -9.064593 -0.181180 0.000000
23.460234 -6.197564 1.621680 0.000000
12.305449 20.603531 -0.334330 0.000000
13.152046 22.053175 0.162388 0.000000
28.354385 -7.366084 -1.840435 0.000000
22.097799 17.669806 -1.200695 0.000000
9.258015 -10.299071 0.679687 0.000000
95.835297 -19.194113 0.563448 0.000000
7.042316 -7.522782 -0.853948 0.000000
46.823818 -27.687437 0.476279 0.000000
60.353882 46.626991 2.432047 0.000000
13.174688 5.835101 -1.239910 1.000000
112.857269 4.169300 -0.763143 1.000000
11.413138 6.738317 -0.927281 0.929412
9.662237 -0.475667 -1.953362 0.000000
72.985451 24.417616 -1.125606 0.000000
18.035372 17.538483 -1.484361 0.000000
12.682672 21.016300 -0.156382 0.000000
19.961088 -14.879641 -0.232858 0.000000
42.280060 -15.377395 -1.998713 0.000000
6.419186 -8.479389 -0.228004 0.000000
39.804279 15.023525 0.721967 0.000000
5.568944 -7.923879 -0.506244 0.000000
12.233582 6.575208 -0.716527 0.960784
53.237484 -33.797810 2.861393 0.000000
26.043093 19.860769 -0.388077 0.000000
51.466084 -31.279881 2.297527 0.000000
58.327206 -6.210941 -2.062496 0.000000
9.097849 -11.131423 1.160113 0.000000
36.241627 40.974586 3.913802 0.000000
20.049793 -14.983404 0.174660 0.000000
30.324900 -3.497117 -1.847098 0.000000
26.475649 14.458530 5.490348 0.000000
5.785851 -9.204772 0.258256 0.000000
27.579266 32.080086 3.683414 0.000000
24.638569 -10.353825 -1.828999 0.000000
56.775894 -34.376400 3.517412 0.000000
19.727072 -12.135493 3.952387 0.000000
12.632809 2.438552 -0.791243 0.000000
125.202904 -21.290783 7.199849 0.000000
13.668560 -7.330847 -1.805018 0.000000
37.686367 -28.664581 -1.706200 0.000000
21.859858 -8.523299 2.121477 0.000000
11.801991 0.400713 -1.958350 0.000000
18.358898 -8.793381 1.048989 0.000000
11.175774 2.652112 -1.625299 0.000000
9.655900 4.874170 -1.951434 0.000000
5.277925 -7.485401 -0.752642 0.000000
21.713654 -10.273560 0.414529 0.000000
10.792774 -4.135211 -1.801344 0.000000
46.245293 -39.682190 0.830249 0.000000
5.834144 -7.973779 -0.494549 0.000000
37.002186 -7.211841 0.358503 0.000000
16.627079 21.701967 0.859517 0.000000
21.761805 -8.702833 5.524163 0.000000
8.816649 -10.342319 0.737056 0.000000
66.257202 12.270249 1.415279 0.000000
64.943413 26.200739 -0.717569 0.000000
9.174072 -7.062088 -1.431956 0.000000
119.038315 43.985168 -1.227757 0.000000
6.370534 -9.316000 0.284694 0.000000
12.059697 15.224958 -0.772235 0.000000
14.581140 -3.020838 -1.868846 0.000000
135.646194 -15.554375 -1.254201 0.000000
57.457314 47.270641 2.656665 0.000000
7.308048 -6.300123 -1.616244 0.000000
10.080383 2.167423 -1.954159 0.000000
8.980342 -5.562470 -1.795182 0.000000
59.791546 22.258749 -1.908763 0.000000
31.071770 9.261705 -0.528005 1.000000
10.081820 -2.694078 -1.953250 0.000000
11.252450 2.885343 -0.601988 0.000000
11.137843 -2.620125 -1.955772 0.000000
18.822676 -14.229980 2.039266 0.000000
7.700979 0.105731 -1.949005 0.000000
13.365533 11.960152 -1.953039 0.000000
7.145200 -7.190701 -1.063193 0.000000
11.282701 5.682298 -1.954803 0.000000
5.278784 -8.863859 0.086501 0.000000
7.645329 -8.353952 -0.390577 0.000000
6.833370 -9.650158 0.455474 0.000000
46.471741 32.459549 6.025946 0.000000
14.088311 2.272222 -1.177521 0.000000
73.033096 -19.169586 0.481927 0.000000
57.373299 -19.577459 0.217397 0.000000
15.120382 21.640455 0.613656 0.000000
6.271588 -7.581922 -0.763827 0.000000
15.621062 21.160585 0.528050 0.000000
31.996159 2.102471 -2.004325 0.000000
37.017731 19.943346 0.195909 0.000000
11.015759 3.962393 -1.551031 0.000000
14.407118 20.031792 -0.171134 0.000000
13.215352 10.831808 -1.954138 0.000000
23.889282 19.593323 -0.552330 0.000000
38.250557 18.311029 1.285664 0.000000
7.952901 -9.513503 0.293426 0.000000
20.171156 -12.906538 2.738592 0.000000
23.657190 16.535635 -1.663127 0.000000
76.467049 -12.649547 -1.948873 0.000000
77.464096 -17.918764 -0.423783 0.000000
79.333946 -73.729378 10.223630 0.000000
20.312683 -10.690691 2.079764 0.000000
10.046962 15.416519 -0.696453 0.000000
7.953104 -6.983823 -1.255306 0.000000
147.449402 -13.771195 -1.540350 0.000000
19.631704 17.286345 -1.365059 0.000000
20.063961 -14.637047 -1.347138 0.000000
54.700397 -46.767113 3.048474 0.000000
11.043893 3.561023 -0.800535 0.000000
11.888631 -1.285852 -1.958185 0.000000
5.244976 -8.537721 -0.109684 0.000000
6.411841 -9.581196 0.443231 0.000000
20.658600 -13.507531 3.887627 0.000000
47.803032 -23.766405 0.157315 0.000000
21.342497 -7.688100 3.660111 0.000000
45.892502 32.140160 5.633477 0.000000
32.593994 12.727695 -1.849375 0.000000
7.156122 -8.811505 -0.077740 0.000000
8.242849 3.867607 -1.948769 0.000000
7.627569 -4.546489 -1.792991 0.000000
36.208797 5.624046 -0.627187 0.000000
6.571798 -8.901199 0.017996 0.000000
12.639861 2.357267 -0.912051 0.000000
14.637760 19.129501 -0.741015 0.000000
20.945971 21.288824 0.344918 0.000000
9.005878 -4.447542 -1.796621 0.000000
38.746311 17.084774 2.718677 0.000000
6.785801 -8.122483 -0.471018 0.000000
47.185036 32.412453 0.133111 0.000000
38.726521 5.204644 -0.842594 0.000000
57.649143 -34.639984 3.838513 0.000000
17.967823 -8.974949 2.205210 0.000000
37.089092 -0.437550 -0.761750 1.000000
23.479687 -4.545327 -1.830871 0.000000
53.739662 -35.630833 3.055038 0.000000
18.799120 -8.701536 -1.816331 0.000000
40.594036 20.261265 2.115711 0.000000
66.672859 -57.074623 12.821246 0.000000
43.671967 29.874348 6.218863 0.000000
39.040997 17.233892 4.957033 0.000000
46.383865 -23.517824 -0.277058 0.000000
19.981050 -14.752226 0.732644 0.000000
10.329392 8.451414 -1.949212 0.000000
10.211137 1.615125 -1.954619 0.000000
14.672485 -9.586573 -1.804706 0.000000
23.902126 -7.875005 -1.829518 0.000000
22.100180 15.015038 -0.818764 0.000000
8.746945 -9.297413 0.106100 0.000000
18.172417 12.798824 -1.929584 0.000000
17.253410 -14.533854 2.943671 0.000000
26.182970 22.546562 0.473686 0.000000
19.022488 -13.362441 4.466845 0.000000
7.745258 -6.647323 -1.445860 0.000000
9.462799 9.928576 -1.944627 0.000000
8.695928 -10.386741 0.772588 0.000000
11.733838 0.257442 -0.891764 0.882353
146.145157 -22.475780 1.749963 0.000000
49.000473 -21.087103 -0.472912 0.000000
33.053577 -23.216614 -1.986920 0.000000
17.495726 15.096914 -1.808062 0.000000
87.103149 4.310188 -0.304376 0.141176
15.789971 -4.062131 -1.813280 0.000000
20.471325 -8.575471 3.654284 0.000000
66.345970 15.184906 -0.857628 0.000000
32.753536 -7.870545 -1.850388 0.000000
12.535850 -5.252646 -1.804499 0.000000
5.396181 -7.634658 -0.670119 0.000000
53.501816 -32.479298 2.778744 0.000000
9.653064 -8.201396 -0.744486 0.000000
8.699613 -0.062807 -1.951253 0.000000
18.563271 -10.112428 3.246256 0.000000
6.758809 -6.792524 -1.278309 0.000000
79.963928 9.688639 -2.113156 0.000000
19.868168 -10.347790 2.240525 0.000000
47.921700 14.428559 -0.648548 0.000000
21.695343 -10.289486 -1.112059 0.000000
45.770996 31.102121 10.547253 0.000000
13.533812 -3.499069 -1.808383 0.000000
138.121613 77.484261 0.655483 0.000000
24.590780 20.912230 -0.105948 0.000000
29.114326 2.866499 -1.997712 0.000000
106.294617 -16.402897 -0.784836 0.000000
6.094334 -8.822866 0.003974 0.000000
17.111517 -12.581162 -1.757395 0.000000
45.609425 30.891911 7.189069 0.000000
8.467690 -5.950907 -1.793287 0.000000
24.374386 34.071598 3.081450 0.000000
9.303955 -2.602100 -1.951486 0.000000
5.050217 -8.198659 -0.302369 0.000000
20.876793 -8.422192 3.751904 0.000000
10.354974 -0.982564 -1.954791 0.000000
42.050560 16.898777 4.207552 0.000000
16.777014 23.012146 1.313247 0.000000
8.034370 -7.552718 -0.905312 0.000000
23.322496 14.987182 -1.428270 0.000000
7.453906 -8.308476 -0.404800 0.000000
138.774323 83.604347 1.194036 0.000000
14.285710 6.027641 -0.810885 1.000000
20.231581 18.546200 -0.538124 0.000000
22.157356 -7.654262 1.386650 0.000000
9.554314 -8.666608 -0.408216 0.000000
5.500762 -7.863624 -0.538116 0.000000
77.899467 -19.284712 0.380865 0.000000
10.122360 -5.410915 -1.798314 0.000000
22.442104 20.637772 -0.167508 0.000000
14.494200 15.191778 -0.691032 0.000000
29.445156 34.281628 5.448570 0.000000
8.481198 -0.287894 -1.950718 0.000000
87.162003 4.001876 -1.316551 0.137255
58.510269 -14.859154 -1.482163 0.000000
7.256977 -7.836854 -0.677927 0.000000
19.194460 -14.377609 4.281028 0.000000
11.260531 6.607659 -1.470273 0.929412
15.683532 21.657887 0.768022 0.000000
41.365101 18.394409 -1.295432 0.000000
11.833019 5.892344 -1.956001 0.000000
9.318051 -8.659170 -0.368726 0.000000
17.651646 -8.720513 0.973495 0.000000
42.031277 15.978456 0.337614 0.000000
11.090023 -4.032141 -1.802157 0.000000
75.869987 -75.408936 4.972377 0.000000
12.333535 1.263118 -1.959538 0.000000
19.437567 -10.136723 -1.816304 0.000000
11.277987 7.104036 -1.327097 0.905882
34.977535 1.375825 -2.011102 0.000000
145.742935 -14.658864 -1.306514 0.000000
13.803944 19.014633 -0.805689 0.000000
53.152100 -49.519360 2.456124 0.000000
23.155872 -9.464723 -1.826262 0.000000
25.203701 34.332256 3.199747 0.000000
12.421878 6.016180 -0.864010 0.988235
6.600785 -9.418665 0.330953 0.000000
7.813103 -9.773918 0.461759 0.000000
40.071259 17.213623 2.219784 0.000000
22.520931 -6.552499 1.216281 0.000000
10.084633 15.400253 -0.996017 0.000000
136.520462 105.251503 2.678570 0.000000
79.667374 14.287489 4.686488 0.000000
15.720699 -7.378869 -1.810121 0.000000
12.193605 7.117785 -1.955755 0.000000
140.617325 -19.353992 3.343856 0.000000
62.079525 -20.699356 1.089229 0.000000
11.251600 2.630807 -0.793955 0.000000
12.828231 18.512238 -1.112908 0.000000
83.294380 -14.409360 -1.733045 0.000000
18.437407 21.156271 0.711135 0.000000
11.942072 -2.073640 -1.957956 0.000000
40.588055 16.281748 2.109110 0.000000
44.158253 -21.520414 -1.568833 0.000000
42.037418 15.586106 3.571476 0.000000
22.090549 23.920225 1.108831 0.000000
49.159100 -14.459150 -1.884204 0.000000
34.044502 -13.294131 -1.849047 0.000000
53.310982 -25.961229 1.479536 0.000000
19.845106 -9.617414 3.842075 0.000000
11.943157 5.802176 -1.472155 0.984314
41.144562 17.280779 8.097714 0.000000
9.139303 -0.457594 -1.952176 0.000000
15.752720 25.397358 1.481982 0.000000
44.716064 -35.622128 0.522719 0.000000
23.309948 -6.387334 1.560699 0.000000
12.607017 13.774706 -1.795751 0.000000
11.160004 4.061985 -1.292919 0.000000
12.966721 2.389318 -0.850490 0.000000
80.115364 -25.052404 9.608632 0.000000
6.242780 -8.125350 -0.431066 0.000000
26.365511 -8.190810 -1.835123 0.000000
9.911464 -1.139845 -1.953719 0.000000
42.736580 -3.403571 -2.027869 0.000000
34.199551 14.891282 1.981904 0.000000
7.600149 -10.100690 0.675665 0.000000
17.881683 21.677382 0.924703 0.000000
19.168953 -6.741209 1.615765 0.000000
44.697823 -30.847128 0.235389 0.000000
15.340787 21.234829 0.577353 0.000000
9.212464 -9.598196 0.256410 0.000000
14.948298 19.368172 -0.593663 0.000000
6.473035 -8.008018 -0.518683 0.000000
14.336385 -3.878979 -1.809997 0.000000
29.689318 10.383510 -1.880188 1.000000
23.843027 -14.678463 -1.821928 0.000000
81.095642 -17.802359 -0.345907 0.000000
59.247631 53.171261 5.889832 0.000000
29.969831 33.565929 5.088840 0.000000
12.056627 1.971157 -1.958784 0.000000
5.291688 -7.453961 -0.772756 0.000000
27.336521 -7.015639 -1.838293 0.000000
7.768173 3.833271 -1.947614 0.000000
40.579372 43.410160 7.855569 0.000000
22.368198 -5.880261 0.969154 0.000000
12.057716 2.423608 -0.846979 0.000000
12.800591 15.221867 -0.685797 0.000000
45.960270 -19.328089 -1.764823 0.000000
46.695309 32.973328 0.052076 0.000000
14.038061 18.314421 -1.248414 0.000000
67.221466 -26.421610 3.899980 0.000000
48.755592 -26.057329 0.844769 0.000000
15.557458 19.283558 -0.652437 0.000000
129.232056 83.437721 3.584843 0.000000
13.768105 21.142344 0.158213 0.000000
57.620197 47.679195 1.208981 0.000000
13.139665 -8.039358 -1.802764 0.000000
69.678047 -14.734330 -1.834991 0.000000
61.633606 2.047841 -1.626669 0.819608
17.452517 -14.766893 4.015285 0.000000
7.045776 -3.663272 -1.792594 0.000000
7.000632 -6.955301 -1.196249 0.000000
8.323935 -4.655570 -1.794647 0.000000
5.830868 -9.559790 0.471235 0.000000
16.880152 -14.325994 -0.615074 0.000000
20.536995 -10.229329 4.357164 0.000000
9.257868 -6.720933 -1.680570 0.000000
20.270885 -10.393022 2.079818 0.000000
8.317064 -2.866153 -1.804571 0.000000
11.505577 -0.213202 -1.278855 0.886275
47.021317 -21.315397 -0.843939 0.000000
37.478275 -0.821681 -0.641686 1.000000
37.718212 2.899961 -0.796834 1.000000
58.639744 -32.296947 3.851957 0.000000
73.073936 -47.314465 8.214576 0.000000
61.377594 -13.422134 -1.672284 0.000000
8.297500 -8.227294 -0.513417 0.000000
99.786819 14.311085 -0.581232 0.000000
85.891098 1.477257 -0.981134 0.000000
15.044054 19.940886 -0.234169 0.000000
8.153042 -6.822928 -1.402830 0.000000
9.997773 1.617118 -1.954127 0.000000
11.564515 6.755298 -0.882308 0.933333
97.616768 -30.054560 21.386602 0.000000
79.628128 14.239641 -0.046914 0.000000
8.194982 -8.122529 -0.569955 0.000000
28.283684 18.103273 -1.296733 0.000000
5.758447 -7.906746 -0.530023 0.000000
36.172443 6.419919 -0.681083 0.000000
5.497563 -7.375920 -0.834750 0.000000
24.161224 -6.499744 2.280711 0.000000
23.451935 15.777475 -1.823504 0.000000
21.292982 14.183835 -1.819575 0.000000
23.130419 -5.730790 -1.829325 0.000000
144.930817 -16.691740 -0.480414 0.000000
11.436399 12.989406 -1.873132 0.000000
28.341249 -15.705730 -1.832233 0.000000
11.506043 -0.770228 -1.504720 0.890196
55.497990 -37.382469 3.589414 0.000000
8.047455 -7.550326 -0.907686 0.000000
58.358467 -23.463207 1.699372 0.000000
90.503311 -26.641769 7.410407 0.000000
15.443997 5.705768 -1.747885 1.000000
40.611820 19.708216 5.495947 0.000000
113.209084 84.758286 5.039375 0.000000
12.411387 21.293056 -0.177646 0.000000
20.214233 2.898553 -1.977339 0.000000
26.049845 36.502323 3.520483 0.000000
15.591517 -9.733051 -1.806926 0.000000
22.433546 -13.144423 -1.820262 0.000000
56.597130 -19.106798 0.003990 0.000000
14.354857 -5.723650 -1.808474 0.000000
41.583904 -24.060869 -1.703858 0.000000
21.900389 -9.552373 -1.823095 0.000000
62.417698 -42.208225 5.342290 0.000000
14.572564 18.988626 -0.829061 0.000000
14.772573 15.951705 -1.798904 0.000000
22.349432 23.879667 1.046760 0.000000
16.136911 20.490952 0.101984 0.000000
19.407543 18.451954 -0.717154 0.000000
9.244957 -9.356528 0.107085 0.000000
11.133681 3.593347 -0.708485 0.000000
10.867965 3.030680 -1.132007 0.000000
11.247577 6.036427 -1.529375 0.956863
5.028674 -7.832510 -0.523771 0.000000
7.956051 0.540988 -1.949600 0.000000
9.508202 -3.259031 -1.799042 0.000000
13.001121 -5.573488 -1.805315 0.000000
14.747121 23.646048 0.886499 0.000000
29.885248 4.506858 -1.999229 0.000000
24.847511 -6.196849 -1.833027 0.000000
19.936840 -10.828627 3.743316 0.000000
8.175563 -11.029107 1.200254 0.000000
17.253633 22.526154 1.350834 0.000000
9.608418 -3.370520 -1.799185 0.000000
11.177794 3.246671 -0.618735 0.000000
16.762777 20.675514 0.212423 0.000000
100.756897 -15.157464 -1.299853 0.000000
54.290329 -19.981209 0.203784 0.000000
20.284178 -13.243674 5.027282 0.000000
51.029976 -32.120358 2.208569 0.000000
40.442871 16.806622 4.961440 0.000000
38.181293 -20.968027 -1.850919 0.000000
15.422471 14.094171 -1.803545 0.000000
6.135554 -7.150199 -1.016970 0.000000
9.846685 -7.721955 -1.108276 0.000000
7.280842 -4.185887 -1.792556 0.000000
100.764412 -15.270946 -1.249135 0.000000
12.565616 17.601049 -1.683886 0.000000
14.933838 6.411392 -1.963270 0.000000
11.586658 -0.617639 -0.978208 0.894118
21.971087 16.056463 -1.750575 0.000000
17.100691 19.998795 -0.193660 0.000000
58.289036 14.028067 -1.538180 0.000000
12.652817 21.577703 -0.059951 0.000000
58.257572 52.892223 5.728427 0.000000
11.714821 -6.377734 -1.801198 0.000000
16.981146 20.686293 0.217219 0.000000
11.467257 6.896637 -1.954101 0.000000
33.185310 -3.958955 -1.853461 0.000000
66.057266 -56.326477 10.227743 0.000000
12.360091 15.235368 -1.384691 0.000000
22.286200 -5.711557 0.887157 0.000000
24.806934 17.602386 -1.196741 0.000000
54.101933 -22.567902 0.874473 0.000000
129.538712 83.124535 4.066931 0.000000
5.357557 -8.233364 -0.302938 0.000000
48.633839 -31.584723 1.410044 0.000000
36.237053 6.590564 -0.623618 0.000000
28.576191 0.982849 -1.996525 0.000000
57.003540 -15.000588 -1.514010 0.000000
21.593359 -7.943753 1.365669 0.000000
35.370956 -23.281292 -1.925207 0.000000
26.393429 34.848473 3.692897 0.000000
37.828270 17.659071 1.165047 0.000000
85.289459 40.187012 -1.170580 0.000000
7.809573 -3.747613 -1.794416 0.000000
27.548355 -5.084495 -1.839981 0.000000
37.033592 -7.138405 2.020634 0.000000
6.987097 -9.269234 0.212759 0.000000
123.748383 -25.530462 12.124388 0.000000
125.399666 -16.897322 -0.628445 0.000000
34.813614 -13.715080 -1.850512 0.000000
12.478652 -0.549305 -0.547721 0.894118
18.022020 -9.058821 -1.813990 0.000000
15.237318 20.987621 0.422727 0.000000
28.663179 1.558729 -1.996740 0.000000
22.535187 19.202143 -0.714491 0.000000
11.552232 -0.256367 -1.014232 0.890196
35.902229 -10.734098 -1.855722 0.000000
22.228470 17.307999 -1.342063 0.000000
50.770634 -43.140572 2.049389 0.000000
62.903748 -59.188530 6.416656 0.000000
29.737339 -21.017244 -1.828771 0.000000
10.099986 3.367299 -1.953641 0.000000
49.112892 -36.713303 1.657862 0.000000
24.144573 -6.714703 -1.831009 0.000000
8.867720 -10.907934 1.077710 0.000000
30.666651 -5.149072 -1.847142 0.000000
71.689972 73.445602 8.584607 0.000000
5.045345 -8.460167 -0.142803 0.000000
18.961668 -14.818322 4.233790 0.000000
51.731037 -17.630882 -1.041495 0.000000
85.880371 1.018150 -0.966383 0.000000
17.178949 -14.151228 3.310534 0.000000
29.200586 10.690271 -1.994938 0.000000
11.989577 -2.978674 -1.805124 0.000000
14.614301 20.511087 0.128570 0.000000
93.271439 -10.311481 6.101445 0.000000
53.767811 -52.618649 2.340373 0.000000
11.716517 6.625170 -0.857916 0.945098
7.576707 -7.580993 -0.856027 0.000000
14.853667 13.939577 -1.802127 0.000000
7.865970 -6.398896 -1.638182 0.000000
54.397495 -15.904353 -1.362417 0.000000
18.686094 20.429371 0.325122 0.000000
22.472172 15.315963 -1.821422 0.000000
11.959929 7.622529 -1.836825 0.901961
40.149693 14.541299 -0.826174 0.000000
29.343534 -7.021813 -1.842985 0.000000
25.170305 3.323086 -1.988630 0.000000
40.274067 39.579201 7.146541 0.000000
12.643091 7.052427 -0.590270 0.949020
15.112726 6.064384 -1.963964 0.000000
9.242014 -7.189919 -1.357503 0.000000
20.056389 -14.637235 -1.449303 0.000000
124.124954 -21.701786 10.292544 0.000000
6.002216 -8.697450 -0.065879 0.000000
17.248243 19.298794 -0.580759 0.000000
24.182934 14.964166 -1.419180 0.000000
18.343090 18.945086 -0.605470 0.000000
99.866104 -17.334497 -0.482404 0.000000
13.160313 20.282450 -0.164758 0.000000
7.718989 -6.135134 -1.790521 0.000000
67.223480 -27.297037 4.171494 0.000000
5.696194 -7.021269 -1.064560 0.000000
9.530154 -8.853532 -0.276006 0.000000
18.586231 -14.668921 4.307302 0.000000
15.067890 -10.189034 -1.804919 0.000000
87.227425 -22.476898 2.198813 0.000000
59.187435 -25.380816 2.484961 0.000000
7.196651 -9.933589 0.602395 0.000000
20.073263 19.096874 -0.306001 0.000000
96.956673 -28.310228 16.216650 0.000000
22.290987 -7.585495 1.556373 0.000000
19.146357 19.932552 0.109953 0.000000
7.020959 -3.310395 -1.792933 0.000000
8.115756 -7.686574 -0.829597 0.000000
23.994658 -3.661799 -1.832516 0.000000
21.838371 -9.886950 -1.822590 0.000000
14.683302 5.748541 -1.410942 1.000000
11.900553 -0.242056 -0.752436 0.890196
51.820076 -22.115499 0.422237 0.000000
37.442562 2.859916 -0.899861 1.000000
8.222219 -8.448879 -0.373328 0.000000
86.867035 4.467165 -0.811134 0.141176
26.241829 22.774557 0.548575 0.000000
15.697649 -11.092303 -1.805320 0.000000
11.296551 7.533444 -1.347071 0.886275
18.629196 20.606926 0.420049 0.000000
133.009323 75.121788 0.152596 0.000000
21.809057 -11.223086 -1.821021 0.000000
7.274328 -8.220261 -0.445862 0.000000
18.312614 -11.436415 2.150887 0.000000
11.707436 -0.776462 -0.898194 0.894118
34.375900 -8.408022 -1.853821 0.000000
5.837443 -8.324874 -0.281068 0.000000
12.186736 5.924805 -0.977759 0.988235
7.939027 -10.417559 0.844665 0.000000
15.908716 18.522194 -1.134599 0.000000
46.781612 -23.123133 -0.295876 0.000000
13.463738 17.496477 -1.757843 0.000000
117.877052 -27.575459 6.752352 0.000000
13.175538 17.590481 -1.696094 0.000000
12.030310 7.917472 -1.954474 0.000000
11.733040 6.213939 -0.874712 0.964706
136.023682 -21.018272 0.482100 0.000000
55.363392 -26.400604 2.114402 0.000000
26.662169 20.210978 -0.253683 0.000000
13.704414 -5.606983 -1.807003 0.000000
41.193214 38.377342 3.903388 0.000000
8.140693 -3.627529 -1.795367 0.000000
41.298435 15.254822 2.409266 0.000000
17.259398 12.835573 -1.862710 0.000000
16.740438 19.080299 -0.790975 0.000000
14.504455 17.909262 -1.507549 0.000000
9.261744 -8.195461 -0.674759 0.000000
49.109505 14.305549 -0.874549 0.000000
146.122253 -17.192816 -0.073998 0.000000
9.010880 -1.892118 -1.951277 0.000000
39.266701 17.620810 0.242893 0.000000
11.692421 15.495024 -1.790140 0.000000
12.102269 6.291876 -0.758220 0.968627
48.890820 28.491411 -1.045076 0.000000
39.066238 18.084749 3.525011 0.000000
9.424944 -1.167373 -1.952595 0.000000
61.805824 -20.760920 1.072251 0.000000
7.896914 -8.558038 -0.284073 0.000000
11.107553 -1.443165 -1.956335 0.000000
9.067724 4.109090 -1.950618 0.000000
18.521637 15.071152 -1.435732 0.000000
10.847577 3.174441 -1.261901 0.000000
132.497314 -19.846455 6.381666 0.000000
40.903225 20.962790 1.011451 0.000000
17.057512 19.154230 -0.697751 0.000000
8.938024 -8.680555 -0.282616 0.000000
