# .PCD v0.7 - Point Cloud Data file format
VERSION 0.7
FIELDS x y z rgb
SIZE 4 4 4 4
TYPE F F F F
COUNT 1 1 1 1
WIDTH 884
HEIGHT 1
VIEWPOINT 0 0 0 1 0 0 0
POINTS 884
DATA ascii
-17.90246582 5.114816666 -1.863093853 2.176501259e-38
-17.90188599 4.995114803 -1.85978055 2.176501259e-38
-4.663487911 1.270193696 -0.4836519063 2.295887404e-38
-4.621968269 1.228250504 -0.4785490632 2.295887404e-38
-4.634067535 1.200821519 -0.4790232182 2.295887404e-38
-4.625974178 1.168263674 -0.4774308205 2.295887404e-38
-4.61463213 1.135062218 -0.4755249023 2.295887404e-38
-4.592690468 1.099610329 -0.4725544453 2.295887404e-38
-4.58186245 1.067090631 -0.470751673 2.295887404e-38
-4.581958771 1.037286997 -0.470094651 2.295887404e-38
-4.556136608 1.001857519 -0.466799289 2.295887404e-38
-4.535041809 0.9678608179 -0.4640180767 2.295887404e-38
-4.514463425 0.9052407146 -0.4607315063 2.295887404e-38
-4.521521568 0.8776037693 -0.4608892798 2.295887404e-38
-4.522120476 0.8487300277 -0.4604067802 2.295887404e-38
-4.478858948 0.8119993806 -0.4554809928 2.295887404e-38
-4.516176701 0.7899474502 -0.458771497 2.295887404e-38
-4.454649925 0.7508054376 -0.4520401657 2.295887404e-38
-4.49020195 0.7282821536 -0.455183059 2.295887404e-38
-4.513396263 0.7034085989 -0.4570842087 2.295887404e-38
-4.467469692 0.6397685409 -0.4515975118 2.295887404e-38
-4.46927166 0.583712697 -0.4510154724 2.295887404e-38
-4.452167988 0.5534849763 -0.4489354193 2.295887404e-38
-4.418723106 0.5216153264 -0.4452262223 2.295887404e-38
-4.444671631 0.4968272448 -0.4475239515 2.295887404e-38
-4.478906155 0.4726245105 -0.4506675899 2.295887404e-38
-4.439807415 0.4407525361 -0.4464509785 2.295887404e-38
-4.427110672 0.4118549824 -0.4449105263 2.295887404e-38
-4.443784714 0.3857122958 -0.4463373721 2.295887404e-38
-4.44212389 0.3302535713 -0.4457254708 2.295887404e-38
-4.448485851 0.3030767739 -0.4461688399 2.295887404e-38
-4.41221571 0.2732020319 -0.4423514605 2.295887404e-38
-4.400001049 0.2451630086 -0.44096753 2.295887404e-38
-4.417630196 0.2187374532 -0.4425910413 2.305070954e-38
-4.426067829 0.1917174459 -0.443308562 2.305070954e-38
-4.410881519 0.163740173 -0.4416765273 2.305070954e-38
-4.409005642 0.1363670379 -0.4413977265 2.305070954e-38
-4.433849812 0.1097007468 -0.4438074827 2.305070954e-38
-4.398691177 0.08161783218 -0.4402302802 2.305070954e-38
-4.546437263 0.05622011051 -0.4549725652 2.295887404e-38
-4.545496464 0.02811422572 -0.4548523128 2.295887404e-38
-4.682118416 -0.02895271964 -0.5039260387 2.295887404e-38
-4.754360199 -0.05880454555 -0.5117285252 2.295887404e-38
-4.983155727 -0.1232991144 -0.5364767909 2.295887404e-38
-5.111993313 -0.1581077278 -0.5504427552 2.295887404e-38
-5.216010571 -0.1936210394 -0.561762929 2.295887404e-38
-5.374192715 -0.2327916622 -0.5789424181 2.295887404e-38
-5.540854454 -0.2743574083 -0.597065568 2.286703854e-38
-5.741028309 -0.3198585212 -0.6188395023 2.286703854e-38
-5.945796967 -0.3681897819 -0.6411432028 2.286703854e-38
-6.172371387 -0.4205496311 -0.6658437252 2.286703854e-38
-17.28125954 -1.284820557 -1.865042448 2.185684809e-38
-17.2671833 -1.391196728 -1.864410758 2.185684809e-38
-17.28487015 -1.500299692 -1.867292762 2.185684809e-38
-17.21472359 -1.601482987 -1.860753775 2.185684809e-38
-17.2054081 -1.708038568 -1.860845804 2.185684809e-38
-17.24032784 -1.819248319 -1.865805864 2.185684809e-38
-17.20329475 -1.922994375 -1.863048077 2.185684809e-38
-17.23045921 -2.033974409 -1.867315769 2.185684809e-38
-17.16762924 -2.13433671 -1.861902118 2.185684809e-38
-17.1917057 -2.245326519 -1.865985394 2.185684809e-38
-17.17632866 -2.351447105 -1.865857124 2.185684809e-38
-17.15343857 -2.456447601 -1.864984274 2.185684809e-38
-17.12535477 -2.560661793 -1.863617778 2.185684809e-38
-17.10211372 -2.665384769 -1.86284399 2.185684809e-38
-17.10074425 -2.773591995 -1.864530802 2.185684809e-38
-17.08153152 -2.878987074 -1.864341378 2.185684809e-38
-17.06116104 -2.984209061 -1.864100337 2.185684809e-38
-17.05581665 -3.0920825 -1.865564108 2.185684809e-38
-17.00851059 -3.192279339 -1.862515569 2.185684809e-38
-16.94371605 -3.506711245 -1.862225413 2.185684809e-38
-16.94266701 -3.615923405 -1.864532471 2.185684809e-38
-16.89730453 -3.825341702 -1.864606261 2.185684809e-38
-16.90780067 -3.937782764 -1.868410587 2.185684809e-38
-16.86246109 -4.037308693 -1.866127849 2.185684809e-38
-16.81537628 -4.136142254 -1.863706708 2.185684809e-38
-16.77400589 -4.23618269 -1.861993194 2.185684809e-38
-16.75517845 -4.341799259 -1.862852454 2.185684809e-38
-16.73431969 -4.558033466 -1.866656184 2.185684809e-38
-16.69555664 -4.658551216 -1.865510941 2.185684809e-38
-16.70413971 -4.772482872 -1.869730949 2.185684809e-38
-16.65285492 -4.869384289 -1.867322803 2.185684809e-38
-16.59916687 -4.965348721 -1.864712954 2.185684809e-38
-16.53438377 -5.169614315 -1.864476919 2.185684809e-38
-16.5228653 -5.278401852 -1.866821885 2.185684809e-38
-16.48873901 -5.380092621 -1.866689682 2.185684809e-38
-16.46321106 -5.484623432 -1.867602587 2.185684809e-38
-16.38969231 -5.572984219 -1.863142014 2.185684809e-38
-16.38451958 -5.684526443 -1.866509438 2.185684809e-38
-16.34532356 -5.784405708 -1.866085052 2.185684809e-38
-16.34619141 -5.89871788 -1.870313764 2.185684809e-38
-16.26038361 -5.9816432 -1.864689231 2.185684809e-38
-16.25060463 -6.0924263 -1.867857575 2.185684809e-38
-16.21346855 -6.193135738 -1.867955923 2.185684809e-38
-16.14441109 -6.281414509 -1.86443758 2.185684809e-38
-16.15724373 -6.401744366 -1.870451689 2.185684809e-38
-16.08669472 -6.489161968 -1.866897702 2.185684809e-38
-6.420983315 -2.636416197 -0.7470489144 2.277520305e-38
-6.338060379 -2.648284197 -0.7392904162 2.277520305e-38
-6.214438915 -2.641899109 -0.7267663479 2.277520305e-38
-6.080068111 -2.629280329 -0.712936461 2.277520305e-38
-6.005049229 -2.641035318 -0.7060400248 2.277520305e-38
-5.94011879 -2.656440735 -0.7003262043 2.277520305e-38
-5.862155914 -2.665205479 -0.6930658817 2.286703854e-38
-5.739287853 -2.652308464 -0.6804651022 2.286703854e-38
-5.667693615 -2.661863565 -0.6739131212 2.286703854e-38
-5.55188179 -2.691787004 -0.6640537381 2.286703854e-38
-5.41328907 -2.666060448 -0.6494358778 2.286703854e-38
-5.344570637 -2.673415899 -0.6431633234 2.286703854e-38
-5.240336895 -2.661922216 -0.6325878501 2.286703854e-38
-5.164084911 -2.663476706 -0.6253583431 2.286703854e-38
-5.049452782 -2.683949709 -0.6154495478 2.286703854e-38
-4.990525246 -2.692354918 -0.6102873087 2.286703854e-38
-4.941246033 -2.705334425 -0.6062923074 2.286703854e-38
-4.882871628 -2.7127738 -0.6011776924 2.286703854e-38
-4.808645248 -2.710572243 -0.594094038 2.286703854e-38
-4.745776176 -2.71393466 -0.5883862972 2.286703854e-38
-4.717768192 -2.736774445 -0.5870025754 2.295887404e-38
-4.625493526 -2.721628428 -0.5776044726 2.295887404e-38
-4.547233105 -2.713564873 -0.5699170828 2.295887404e-38
-4.484988689 -2.714185238 -0.5642070174 2.295887404e-38
-4.434310913 -2.721106768 -0.5599375367 2.295887404e-38
-4.380615711 -2.72560215 -0.555274725 2.295887404e-38
-4.323797703 -2.727490187 -0.5502018929 2.295887404e-38
-4.331321239 -2.769831657 -0.5533272028 2.295887404e-38
-4.309115887 -2.831319571 -0.5549242496 2.295887404e-38
-4.274119377 -2.884651184 -0.5549699068 2.295887404e-38
-4.315916538 -2.951875687 -0.5627557039 2.295887404e-38
-4.299973965 -2.980146646 -0.5630685091 2.295887404e-38
-4.281331539 -3.006609678 -0.563054204 2.295887404e-38
-4.281935215 -3.046750307 -0.5656006336 2.295887404e-38
-4.293276787 -3.094973803 -0.5696132779 2.295887404e-38
-4.312685013 -3.149677277 -0.5747632384 2.295887404e-38
-4.25391531 -3.14726615 -0.5695120096 2.295887404e-38
-4.243922234 -3.1807096 -0.5707980394 2.295887404e-38
-4.261250496 -3.235049725 -0.5758104324 2.295887404e-38
-4.250790596 -3.353179932 -0.5827010274 2.286703854e-38
-4.271996021 -3.456469536 -0.5914223194 2.286703854e-38
-4.242551804 -3.476293087 -0.5903123617 2.286703854e-38
-4.238203049 -3.516741276 -0.5927203894 2.286703854e-38
-4.270094395 -3.588018179 -0.6002719402 2.286703854e-38
-4.242681503 -3.609999657 -0.5995467901 2.286703854e-38
-4.216402054 -3.632833719 -0.5989957452 2.286703854e-38
-4.190705776 -3.656089544 -0.5985491872 2.286703854e-38
-4.25014782 -3.801538467 -0.6137056947 2.286703854e-38
-4.224230766 -3.825628757 -0.6133674979 2.286703854e-38
-4.216589451 -3.866444826 -0.6157205105 2.286703854e-38
-6.523020267 -6.056072235 -0.9579655528 2.259153205e-38
-6.425815582 -6.040194988 -0.9491530061 2.259153205e-38
-6.343744278 -6.037403107 -0.9425296187 2.259153205e-38
-6.288301468 -6.059184074 -0.9398420453 2.259153205e-38
-6.176527977 -6.025591373 -0.9286874533 2.259153205e-38
-6.101993561 -6.026973724 -0.9230674505 2.259153205e-38
-6.027184486 -6.027164936 -0.9173713326 2.259153205e-38
-5.982470989 -6.056923389 -0.9162502289 2.259153205e-38
-5.879703522 -6.026978493 -0.9062029123 2.259153205e-38
-5.811459064 -6.031206608 -0.9014163613 2.268336755e-38
-5.752995491 -6.044903278 -0.8981283903 2.268336755e-38
-5.680233002 -6.042838573 -0.8925859332 2.268336755e-38
-5.635271549 -6.069778919 -0.8914014697 2.268336755e-38
-5.551451206 -6.054170609 -0.8840494156 2.268336755e-38
-5.470182419 -6.040091038 -0.8770376444 2.268336755e-38
-5.434658527 -6.075965405 -0.8773497343 2.268336755e-38
-5.381976128 -6.092494965 -0.87491256 2.268336755e-38
-5.290038586 -6.063610554 -0.8660482168 2.268336755e-38
-5.263301373 -6.108769417 -0.8678362966 2.268336755e-38
-5.141279697 -6.042341709 -0.8538627028 2.268336755e-38
-5.082735538 -6.048909187 -0.8503354192 2.268336755e-38
-5.047306061 -6.082731247 -0.8506865501 2.268336755e-38
-5.002278805 -6.104911804 -0.8494433761 2.268336755e-38
-4.934925556 -6.099289417 -0.8443954587 2.268336755e-38
-4.866616726 -6.091505051 -0.8391398787 2.268336755e-38
-4.789377213 -6.071430206 -0.8322771192 2.268336755e-38
-4.765857697 -6.119062901 -0.8347515464 2.268336755e-38
-4.674842358 -6.079358101 -0.8253750205 2.268336755e-38
-4.632112503 -6.101540089 -0.8244814277 2.268336755e-38
-4.563827515 -6.089439392 -0.8190152645 2.268336755e-38
-4.508559227 -6.093824863 -0.815841794 2.268336755e-38
-4.336465836 -5.937707424 -0.7913321853 2.277520305e-38
-4.305802345 -5.972876549 -0.7924581766 2.277520305e-38
-4.281265736 -6.016963482 -0.7947779894 2.277520305e-38
-4.256676674 -6.141830444 -0.8042551279 2.268336755e-38
-4.133953571 -6.125193119 -0.7953183055 2.277520305e-38
-4.026690006 -6.128372669 -0.7892048359 2.277520305e-38
-3.995176315 -6.163150787 -0.7904857993 2.277520305e-38
-3.973549366 -6.213623047 -0.7937965989 2.277520305e-38
-3.912098169 -6.201717377 -0.7891676426 2.277520305e-38
-3.948073864 -6.345393658 -0.804327786 2.268336755e-38
-3.916407585 -6.382126808 -0.8058988452 2.268336755e-38
-3.922026157 -6.480865955 -0.8152857423 2.268336755e-38
-3.918346405 -6.566114902 -0.8229478002 2.268336755e-38
-3.887800694 -6.607395649 -0.8250949979 2.268336755e-38
-3.895708799 -6.715548515 -0.8355745673 2.268336755e-38
-3.875749111 -6.777374744 -0.8402686119 2.268336755e-38
-3.843168259 -6.817898273 -0.8423304558 2.268336755e-38
-3.817847013 -6.871973038 -0.8460794687 2.268336755e-38
-3.808494568 -6.956132412 -0.8535240889 2.268336755e-38
-3.786745787 -7.019146919 -0.8583666086 2.268336755e-38
-3.773928165 -7.100068569 -0.8653894663 2.268336755e-38
-3.759534359 -7.179777145 -0.8722532988 2.268336755e-38
-3.725955486 -7.22401762 -0.874812007 2.268336755e-38
-3.71169591 -7.306948185 -0.8820610046 2.268336755e-38
-3.682770729 -7.36242342 -0.8859898448 2.268336755e-38
-7.173681259 -14.56568432 -1.747454882 2.194868358e-38
-7.084160328 -14.61128998 -1.747633457 2.194868358e-38
-6.995310307 -14.65824223 -1.748039722 2.194868358e-38
-6.909754276 -14.71235085 -1.749367595 2.194868358e-38
-6.733451366 -14.81023216 -1.750964999 2.194868358e-38
-6.652535915 -14.87576675 -1.753818393 2.194868358e-38
-6.547168255 -14.88651848 -1.750279665 2.194868358e-38
-6.457737923 -14.93305874 -1.751021743 2.194868358e-38
-6.383073807 -15.01465702 -1.755924702 2.194868358e-38
-6.278262615 -15.02551746 -1.752623796 2.194868358e-38
-6.168970108 -15.02446842 -1.748016834 2.194868358e-38
-6.105936527 -15.13665771 -1.756640792 2.194868358e-38
-6.008282185 -15.16418457 -1.755494118 2.194868358e-38
-5.817289352 -15.22965717 -1.754608154 2.194868358e-38
-5.6232481 -15.28611183 -1.752962351 2.194868358e-38
-5.530859947 -15.32681084 -1.753673434 2.194868358e-38
-5.443602085 -15.38239479 -1.756147742 2.194868358e-38
-5.346678734 -15.41083813 -1.75558877 2.194868358e-38
-5.255710125 -15.45660973 -1.757066607 2.194868358e-38
-5.152360916 -15.46588135 -1.754464626 2.194868358e-38
-5.055100918 -15.49281216 -1.753938794 2.194868358e-38
-4.972095966 -15.56405735 -1.758490443 2.194868358e-38
-4.872704983 -15.58485603 -1.757404208 2.194868358e-38
-4.77548027 -15.61215687 -1.757115483 2.194868358e-38
-4.688554287 -15.67393208 -1.760770917 2.194868358e-38
-4.573296547 -15.64016247 -1.753769398 2.194868358e-38
-4.485563755 -15.70001125 -1.757333159 2.194868358e-38
-4.40184021 -15.77556229 -1.76271522 2.194868358e-38
-4.296814442 -15.77547264 -1.759697914 2.194868358e-38
-4.208806038 -15.8379612 -1.763728976 2.194868358e-38
-4.104974747 -15.84136677 -1.761247635 2.194868358e-38
-4.00836134 -15.87205029 -1.761869311 2.194868358e-38
-3.900490761 -15.85715008 -1.757544637 2.194868358e-38
-3.801091671 -15.87615585 -1.757050753 2.194868358e-38
-3.698837996 -15.88204098 -1.755091667 2.194868358e-38
-3.591749668 -15.86574554 -1.750846267 2.194868358e-38
-3.492752314 -15.88389206 -1.7504493 2.194868358e-38
-3.382880449 -15.85092926 -1.744472504 2.194868358e-38
-3.181942701 -15.86834812 -1.741904974 2.194868358e-38
-3.080348969 -15.87027264 -1.739995837 2.194868358e-38
-2.979340792 -15.87405872 -1.738385439 2.194868358e-38
-2.879905939 -15.8857708 -1.737681746 2.194868358e-38
-2.772094727 -15.84866333 -1.731666446 2.194868358e-38
-2.678607464 -15.89251328 -1.734647512 2.194868358e-38
-2.573132515 -15.86503124 -1.729870677 2.194868358e-38
-2.47685194 -15.89261723 -1.731172919 2.194868358e-38
-2.381925583 -15.93026447 -1.733617425 2.194868358e-38
-2.180286646 -15.92622566 -1.730095625 2.194868358e-38
-2.088290691 -15.98960876 -1.73560524 2.194868358e-38
-1.982429147 -15.94619179 -1.729512453 2.194868358e-38
-1.88714242 -15.98672199 -1.732586503 2.194868358e-38
-1.782296419 -15.94455719 -1.726835966 2.194868358e-38
-1.586905122 -15.98566628 -1.729007483 2.194868358e-38
-1.486399055 -15.97758389 -1.72710824 2.194868358e-38
-1.387581468 -15.98664379 -1.727114558 2.194868358e-38
-1.289419413 -16.00408745 -1.728091002 2.194868358e-38
-1.191265941 -16.02247047 -1.729279757 2.194868358e-38
-1.091065288 -16.01452827 -1.727638364 2.194868358e-38
-0.9928668737 -16.03468323 -1.729147434 2.194868358e-38
-0.7941047549 -16.03759384 -1.728243589 2.194868358e-38
-0.6945102811 -16.0331955 -1.727281094 2.194868358e-38
-0.5952811241 -16.03549767 -1.727125168 2.194868358e-38
-0.4973898828 -16.07991219 -1.73152101 2.194868358e-38
-0.397914499 -16.08167458 -1.731375337 2.194868358e-38
-0.2980486155 -16.0626297 -1.729131341 2.194868358e-38
-0.1991491318 -16.10127068 -1.733146787 2.194868358e-38
-0.0994470641 -16.08084488 -1.730812788 2.194868358e-38
0 -16.05400658 -1.727890611 2.194868358e-38
0.09931536019 -16.05783463 -1.728351474 2.194868358e-38
0.1984538138 -16.04097748 -1.726634741 2.194868358e-38
0.2973966002 -16.02718544 -1.725301385 2.194868358e-38
0.3965774477 -16.03012466 -1.725829124 2.194868358e-38
0.4944202304 -15.98361492 -1.721164823 2.194868358e-38
0.5940945148 -16.00462532 -1.723776817 2.194868358e-38
0.6917014122 -15.96830273 -1.720298052 2.194868358e-38
0.7916932106 -15.98957825 -1.723054528 2.194868358e-38
0.8884005547 -15.94564342 -1.718876123 2.194868358e-38
0.9895672202 -15.98121452 -1.723311663 2.194868358e-38
1.090473175 -16.00493622 -1.72659874 2.194868358e-38
1.187021494 -15.96593094 -1.723170519 2.194868358e-38
1.281352758 -15.90408134 -1.717281222 2.194868358e-38
1.376417756 -15.85804844 -1.713242292 2.194868358e-38
1.477348924 -15.88046169 -1.71660614 2.194868358e-38
1.573299408 -15.84831429 -1.714144111 2.194868358e-38
1.671168685 -15.83751488 -1.714067578 2.194868358e-38
1.873842478 -15.87432671 -1.720443368 2.194868358e-38
2.065660715 -15.81655979 -1.716773391 2.194868358e-38
2.26097703 -15.78849602 -1.716633081 2.194868358e-38
2.364752293 -15.81569386 -1.721125722 2.194868358e-38
2.462303877 -15.79932308 -1.72100246 2.194868358e-38
2.557367086 -15.76749611 -1.719231844 2.194868358e-38
2.659092665 -15.77696896 -1.722005844 2.194868358e-38
2.751779795 -15.73243713 -1.718999624 2.194868358e-38
2.852856874 -15.73648548 -1.721323371 2.194868358e-38
2.955021143 -15.74472237 -1.724223137 2.194868358e-38
3.046883821 -15.69798088 -1.721111417 2.194868358e-38
3.145740747 -15.68801975 -1.722132683 2.194868358e-38
3.243498325 -15.67202759 -1.722518086 2.194868358e-38
3.340927601 -15.6545105 -1.722847819 2.194868358e-38
3.444984198 -15.6668644 -1.726524949 2.194868358e-38
3.535485029 -15.61737442 -1.723420143 2.194868358e-38
3.630037546 -15.58666039 -1.722490191 2.194868358e-38
3.733821392 -15.59500122 -1.725938201 2.194868358e-38
3.837991714 -15.60346508 -1.72946775 2.194868358e-38
3.928680182 -15.55663872 -1.726950526 2.194868358e-38
4.02993679 -15.55173016 -1.72913909 2.194868358e-38
4.32410717 -15.4971571 -1.731705427 2.194868358e-38
4.429548264 -15.50410366 -1.735470533 2.194868358e-38
4.520033836 -15.45813942 -1.733409524 2.194868358e-38
4.635449886 -15.49631882 -1.740895271 2.194868358e-38
4.719452381 -15.42908955 -1.736591935 2.194868358e-38
4.824844837 -15.4317379 -1.740186453 2.194868358e-38
4.928079128 -15.42640686 -1.743028641 2.194868358e-38
5.035394192 -15.43245792 -1.747184396 2.194868358e-38
5.129227161 -15.39647198 -1.746671438 2.194868358e-38
5.233046532 -15.39008808 -1.749536514 2.194868358e-38
5.32935667 -15.36110497 -1.749971151 2.194868358e-38
5.435868263 -15.36054993 -1.753729701 2.194868358e-38
5.547786236 -15.37380505 -1.759145379 2.194868358e-38
5.65443325 -15.37102413 -1.762789011 2.194868358e-38
5.84805727 -15.31025696 -1.763952017 2.194868358e-38
5.927081108 -15.23373985 -1.759334207 2.194868358e-38
6.008136749 -15.16392899 -1.755533695 2.194868358e-38
6.123582363 -15.18053722 -1.761796713 2.194868358e-38
6.213891983 -15.13394451 -1.760854721 2.194868358e-38
6.304916382 -15.08946323 -1.760153651 2.194868358e-38
6.396113873 -15.04538441 -1.759596348 2.194868358e-38
6.495166302 -15.01979542 -1.761272073 2.194868358e-38
6.669514656 -14.91386127 -1.758397579 2.194868358e-38
6.779513836 -14.91167164 -1.763037443 2.194868358e-38
6.868348122 -14.86240673 -1.762223005 2.194868358e-38
6.963252068 -14.82629013 -1.762996435 2.194868358e-38
7.058988571 -14.79168034 -1.76402247 2.194868358e-38
7.156790733 -14.76116085 -1.765611649 2.194868358e-38
7.256001949 -14.73300743 -1.767596245 2.194868358e-38
7.34715414 -14.68815613 -1.767633319 2.194868358e-38
7.428628445 -14.62432957 -1.765443802 2.194868358e-38
7.535374641 -14.6099596 -1.7693187 2.194868358e-38
7.632095337 -14.57546806 -1.770804167 2.194868358e-38
7.72072649 -14.52536678 -1.770480037 2.194868358e-38
7.818451405 -14.4924469 -1.772351146 2.194868358e-38
7.912801266 -14.45266628 -1.773396254 2.194868358e-38
8.010624886 -14.41891003 -1.775359273 2.194868358e-38
8.08687973 -14.34648705 -1.772553086 2.194868358e-38
8.207429886 -14.35209084 -1.779469609 2.194868358e-38
8.400894165 -14.2776289 -1.783020854 2.194868358e-38
8.510545731 -14.26153755 -1.787502527 2.194868358e-38
8.579129219 -14.17640686 -1.783479214 2.194868358e-38
8.690628052 -14.16225147 -1.788413644 2.194868358e-38
8.76004982 -14.07930756 -1.784745574 2.185684809e-38
8.961858749 -14.01416492 -1.790393114 2.185684809e-38
9.084023476 -14.01352692 -1.797459006 2.185684809e-38
9.174980164 -13.96398926 -1.798343897 2.185684809e-38
5.029139042 -7.551888466 -0.9765114188 2.259153205e-38
5.019934177 -7.437959671 -0.9657731056 2.259153205e-38
4.996417999 -7.305260181 -0.9525386095 2.259153205e-38
5.013115883 -7.233267307 -0.9471753836 2.259153205e-38
5.00544405 -7.12766695 -0.937384069 2.259153205e-38
4.977788448 -6.99589777 -0.9240861535 2.259153205e-38
5.011459827 -6.861924171 -0.9145047665 2.259153205e-38
5.033252239 -6.803042889 -0.9107906818 2.259153205e-38
5.030918121 -6.712674618 -0.9028369188 2.268336755e-38
5.051825523 -6.654399395 -0.8991879225 2.268336755e-38
5.077767372 -6.603390694 -0.8965171576 2.268336755e-38
5.089639187 -6.534788132 -0.8914644122 2.268336755e-38
5.146912575 -6.52470541 -0.8944111466 2.268336755e-38
5.196371078 -6.504258633 -0.8959959149 2.268336755e-38
5.228913784 -6.462604523 -0.8946960568 2.268336755e-38
5.272396564 -6.434598923 -0.8953145146 2.268336755e-38
5.341570377 -6.437363148 -0.9002811909 2.268336755e-38
5.361641884 -6.380854607 -0.8970006704 2.268336755e-38
5.412529945 -6.361105919 -0.8989101648 2.268336755e-38
5.49420023 -6.37677002 -0.9059075117 2.268336755e-38
5.537671089 -6.34741354 -0.9065882564 2.268336755e-38
5.579861164 -6.316500187 -0.9070805907 2.259153205e-38
5.693329811 -6.365209579 -0.9191101789 2.259153205e-38
5.728409767 -6.325226784 -0.9184404016 2.259153205e-38
5.798558235 -6.323654175 -0.9233991504 2.259153205e-38
5.868017673 -6.320509911 -0.9282199144 2.259153205e-38
5.905807495 -6.282830238 -0.928034544 2.259153205e-38
5.972269535 -6.275307178 -0.9323606491 2.259153205e-38
6.043870926 -6.272423744 -0.9374679923 2.259153205e-38
6.126100063 -6.279526711 -0.9441761374 2.259153205e-38
6.173906326 -6.25073576 -0.9455700517 2.259153205e-38
6.251256466 -6.251236916 -0.9514760971 2.259153205e-38
6.345381737 -6.26738739 -0.9598892331 2.259153205e-38
6.396680832 -6.24036026 -0.9617888927 2.259153205e-38
6.487200737 -6.250849724 -0.9695699811 2.259153205e-38
6.561573029 -6.244729042 -0.9748958349 2.259153205e-38
6.621572495 -6.224251747 -0.9780732393 2.259153205e-38
6.703382015 -6.223515511 -0.9844533205 2.259153205e-38
6.905253887 -6.25369072 -1.002661467 2.259153205e-38
7.043580532 -6.222158909 -1.011497259 2.259153205e-38
7.123847485 -6.215027332 -1.017481923 2.249969656e-38
7.304542542 -6.215270519 -1.032231092 2.249969656e-38
7.380143166 -6.201339722 -1.037478209 2.249969656e-38
7.504419804 -6.226964474 -1.049510002 2.249969656e-38
7.714733124 -6.242014885 -1.068044305 2.249969656e-38
7.776669979 -6.21293211 -1.071276784 2.249969656e-38
7.879799843 -6.215894699 -1.080169201 2.249969656e-38
7.964580536 -6.2032547 -1.086512089 2.249969656e-38
8.099842072 -6.228518963 -1.099687934 2.249969656e-38
8.164369583 -6.198155403 -1.10322547 2.249969656e-38
8.262227058 -6.192277431 -1.111251473 2.249969656e-38
8.388643265 -6.206389427 -1.123070598 2.249969656e-38
8.471043587 -6.18665266 -1.128958106 2.240786106e-38
8.595351219 -6.196316242 -1.140398145 2.240786106e-38
8.750150681 -6.226020336 -1.155806303 2.240786106e-38
8.838166237 -6.206672668 -1.162338734 2.240786106e-38
8.930171967 -6.189184189 -1.169380546 2.240786106e-38
9.104111671 -6.22674036 -1.187092304 2.240786106e-38
9.236449242 -6.233755589 -1.199299335 2.240786106e-38
14.78874874 -9.848468781 -1.912288547 2.176501259e-38
15.02776337 -9.874077797 -1.935263991 2.176501259e-38
15.22581959 -9.869915009 -1.952869058 2.176501259e-38
15.4205246 -9.861248016 -1.969985604 2.176501259e-38
15.63183403 -9.860710144 -1.98915112 2.176501259e-38
15.68014336 -9.756152153 -1.987579823 2.176501259e-38
15.73340416 -9.654844284 -1.986726642 2.176501259e-38
15.79599571 -9.55927372 -1.987126827 2.176501259e-38
15.91003132 -9.361440659 -1.98675406 2.176501259e-38
16.0789814 -9.195043564 -1.993497252 2.176501259e-38
16.12773323 -9.091030121 -1.992532253 2.176501259e-38
16.23257446 -8.887448311 -1.991764545 2.176501259e-38
16.30226707 -8.794939041 -1.993589401 2.176501259e-38
16.41077995 -8.593128204 -1.993710399 2.176501259e-38
16.43150902 -8.474907875 -1.989820004 2.176501259e-38
16.53001213 -8.396728516 -1.995426774 2.176501259e-38
16.55668831 -8.281879425 -1.992422104 2.176501259e-38
16.59936523 -8.175270081 -1.99143672 2.176501259e-38
16.67317009 -8.08389473 -1.994257927 2.176501259e-38
16.70791435 -7.973495007 -1.992473602 2.176501259e-38
16.77695847 -7.879415512 -1.99486053 2.176501259e-38
16.8759594 -7.672602177 -1.995196939 2.176501259e-38
16.89695549 -7.556427956 -1.992112875 2.176501259e-38
17.00322723 -7.352962971 -1.99376893 2.176501259e-38
17.05288506 -7.249581814 -1.994298577 2.176501259e-38
17.10067749 -7.145362854 -1.994683743 2.176501259e-38
17.12968445 -7.033351421 -1.99295342 2.176501259e-38
17.20185852 -6.939011574 -1.996318579 2.176501259e-38
17.2563076 -6.837205887 -1.997690439 2.176501259e-38
17.278965 -6.722849846 -1.995459437 2.176501259e-38
17.31538582 -6.61401844 -1.994908333 2.176501259e-38
17.35956383 -6.508171558 -1.995324016 2.176501259e-38
17.36745644 -6.388903141 -1.991646647 2.176501259e-38
17.43989563 -6.293365955 -1.995452046 2.176501259e-38
17.45789909 -6.178160667 -1.993106127 2.176501259e-38
17.52203751 -6.079171658 -1.996095538 2.176501259e-38
17.569067 -5.974014282 -1.997207403 2.176501259e-38
17.62897301 -5.873004436 -1.999851227 2.176501259e-38
17.65559387 -5.760803699 -1.998791456 2.176501259e-38
17.66970253 -5.644715786 -1.996397376 2.176501259e-38
17.72419167 -5.541564941 -1.998643517 2.176501259e-38
17.76521111 -5.434067726 -1.999444485 2.176501259e-38
17.7796917 -5.318472862 -1.997331262 2.176501259e-38
17.81399918 -5.208922386 -1.997528195 2.176501259e-38
17.84390831 -5.098089695 -1.997306824 2.176501259e-38
17.88281059 -4.989789963 -1.998166919 2.176501259e-38
17.91391182 -4.879291058 -1.998236895 2.176501259e-38
17.97800064 -4.777493477 -2.00204587 2.176501259e-38
17.99371147 -4.662739277 -2.000551701 2.176501259e-38
18.04147148 -4.556200027 -2.002690077 2.176501259e-38
18.03575897 -4.436330795 -1.998973131 2.176501259e-38
18.07115936 -4.326757431 -1.999913573 2.176501259e-38
18.07626152 -4.209898949 -1.99754107 2.176501259e-38
18.15205574 -4.109367371 -2.003064156 2.176501259e-38
18.15253258 -3.991617203 -2.000357389 2.176501259e-38
18.15935516 -3.875542641 -1.998429179 2.176501259e-38
18.20358276 -3.767526388 -2.000727892 2.176501259e-38
18.21343803 -3.65218091 -1.999255776 2.176501259e-38
18.22561073 -3.537495136 -1.998151779 2.176501259e-38
18.34862137 -3.326438189 -2.006973982 2.176501259e-38
18.30081177 -3.201010942 -1.999542952 2.176501259e-38
18.32668877 -3.088855267 -2.000240088 2.176501259e-38
18.35407448 -2.976847172 -2.001185179 2.176501259e-38
18.38513565 -2.865318298 -2.002598524 2.176501259e-38
18.37531662 -2.747527361 -1.999646902 2.176501259e-38
18.38645744 -2.633020878 -1.999043107 2.176501259e-38
18.40252876 -2.5192976 -1.999058366 2.176501259e-38
18.40498543 -2.403763056 -1.997673154 2.176501259e-38
18.43663216 -2.17636323 -1.99803853 2.176501259e-38
18.49275017 -2.067098618 -2.002693415 2.176501259e-38
18.49047279 -1.951143503 -2.001101971 2.176501259e-38
18.49620819 -1.836149096 -2.000454426 2.176501259e-38
18.49827003 -1.720905185 -1.999488831 2.176501259e-38
18.51216125 -1.606806397 -1.999872923 2.176501259e-38
18.53610802 -1.493450046 -2.001430035 2.176501259e-38
18.54875183 -1.379068971 -2.001832962 2.176501259e-38
18.52677536 -1.262261987 -1.998580098 2.176501259e-38
18.55026436 -1.148661971 -2.00031805 2.176501259e-38
18.52751732 -1.032263517 -1.99712956 2.176501259e-38
18.56484604 -0.9192313552 -2.000499964 2.176501259e-38
18.5667038 -0.8042741418 -2.000128746 2.176501259e-38
18.56524467 -0.6891891956 -1.99947536 2.176501259e-38
18.59357452 -0.5751254559 -2.002100706 2.176501259e-38
18.60305214 -0.1150573343 -2.002204418 2.176501259e-38
18.56434631 0 -1.998000979 2.176501259e-38
18.61206055 0.1151114702 -2.003173351 2.176501259e-38
18.58177185 0.2298410833 -2.000029802 2.176501259e-38
18.61051559 0.3453167081 -2.003313065 2.176501259e-38
18.54736519 0.4588752389 -1.996783018 2.176501259e-38
18.59210396 0.5750816464 -2.001945019 2.176501259e-38
18.52336884 0.8023811579 -1.995461822 2.176501259e-38
18.56136322 0.9190403819 -2.000127554 2.176501259e-38
18.57442093 1.034866691 -2.002179384 2.176501259e-38
18.57542038 1.150238156 -2.003023624 2.176501259e-38
18.56466866 1.264835954 -2.002670288 2.176501259e-38
18.53058052 1.377713323 -1.999872923 2.176501259e-38
18.53741837 1.493530154 -2.001569748 2.176501259e-38
18.52098083 1.607550502 -2.000831366 2.176501259e-38
18.54138374 1.724925995 -2.004151106 2.176501259e-38
18.49560165 1.836125016 -2.000386238 2.176501259e-38
18.47776222 2.065394163 -2.001066685 2.176501259e-38
18.47131157 2.180428505 -2.001791716 2.176501259e-38
18.43766212 2.292142868 -1.999643803 2.176501259e-38
18.38412857 2.401032448 -1.995410204 2.176501259e-38
18.39188004 2.517827272 -1.997902751 2.176501259e-38
18.38957787 2.633465767 -1.999383926 2.176501259e-38
18.38302803 2.748657942 -2.000481606 2.176501259e-38
18.37225151 2.8633039 -2.001198769 2.176501259e-38
18.36930847 2.979326725 -2.002845764 2.176501259e-38
18.3374939 3.090667725 -2.001421452 2.176501259e-38
18.27032089 3.312241316 -1.998410821 2.176501259e-38
18.27733231 3.430398226 -2.001458168 2.176501259e-38
18.27235794 3.546577454 -2.003274918 2.176501259e-38
18.22555351 3.654582739 -2.00058341 2.176501259e-38
18.20567894 3.767863512 -2.000920057 2.176501259e-38
18.17416191 3.878714323 -2.000056744 2.176501259e-38
18.15160942 3.991407633 -2.000256538 2.176501259e-38
18.10799599 4.09938097 -1.998203993 2.176501259e-38
18.05970001 4.206023216 -1.995705128 2.176501259e-38
18.05163002 4.322013378 -1.997730136 2.176501259e-38
18.02643967 4.434001923 -1.997939587 2.176501259e-38
18.04898834 4.558162212 -2.003524303 2.176501259e-38
17.99049568 4.661910534 -2.000194073 2.176501259e-38
17.95682526 4.771867752 -1.999695659 2.176501259e-38
17.89056015 4.872904778 -1.995631695 2.176501259e-38
17.89882851 4.994283199 -1.999964476 2.176501259e-38
17.82031631 5.210736752 -1.998232365 2.176501259e-38
17.75902557 5.432137012 -1.998747945 2.176501259e-38
17.70819664 5.536603451 -1.996840358 2.176501259e-38
17.68324852 5.649060726 -1.997928977 2.176501259e-38
17.62471008 5.750731468 -1.995294333 2.176501259e-38
17.60982513 5.866589069 -1.997674108 2.176501259e-38
17.55800438 5.970236301 -1.995949388 2.176501259e-38
17.29080772 5.998942852 -1.969757557 2.176501259e-38
16.3559227 6.016759872 -1.875647068 2.185684809e-38
16.0862999 6.030787468 -1.84897089 2.185684809e-38
15.95072651 6.092748165 -1.837686062 2.185684809e-38
15.90741062 6.302720547 -1.841535091 2.185684809e-38
15.83539391 6.387769699 -1.837734818 2.185684809e-38
15.78329849 6.480554581 -1.836306453 2.185684809e-38
15.72602272 6.685493946 -1.839119434 2.185684809e-38
15.68330765 6.782141685 -1.838998437 2.185684809e-38
15.59406662 6.858364105 -1.833471656 2.185684809e-38
15.58166695 6.968205929 -1.837041736 2.185684809e-38
15.5604744 7.074537277 -1.839670897 2.185684809e-38
15.48724174 7.157141685 -1.836210966 2.185684809e-38
15.45173264 7.257008076 -1.837280154 2.185684809e-38
15.40677929 7.352548122 -1.837311864 2.185684809e-38
15.38684845 7.460188866 -1.840398312 2.185684809e-38
15.30802727 7.539286137 -1.836514473 2.185684809e-38
15.27072716 7.638637066 -1.837672591 2.185684809e-38
15.22136688 7.731969833 -1.837449551 2.185684809e-38
15.14027596 7.808959484 -1.833456874 2.185684809e-38
15.04281902 7.995723248 -1.833487034 2.185684809e-38
14.97822762 8.080636978 -1.831676126 2.185684809e-38
14.9575367 8.18927002 -1.835298657 2.185684809e-38
14.91247749 8.284883499 -1.836026311 2.185684809e-38
11.80980873 6.657063961 -1.459055185 2.213235457e-38
14.85004044 8.492227554 -1.841129661 2.185684809e-38
14.75074482 8.556936264 -1.835346103 2.185684809e-38
14.68417931 8.640118599 -1.833673596 2.185684809e-38
14.64778233 8.741095543 -1.835844755 2.185684809e-38
14.57369328 8.819574356 -1.83336091 2.185684809e-38
14.49483013 8.894790649 -1.830326796 2.185684809e-38
14.48707867 9.013799667 -1.836351633 2.185684809e-38
14.41880512 9.09553051 -1.834790707 2.185684809e-38
14.34482861 9.173336983 -1.832563758 2.185684809e-38
13.07657909 8.476725578 -1.677208066 2.194868358e-38
14.19523907 9.327038765 -1.828050017 2.185684809e-38
14.19867611 9.455505371 -1.835986614 2.185684809e-38
14.12564468 9.533543587 -1.834133506 2.185684809e-38
14.05926991 9.615819931 -1.83320117 2.185684809e-38
13.98295498 9.691061974 -1.831028461 2.185684809e-38
13.93324089 9.784719467 -1.832409382 2.185684809e-38
13.86242294 9.863524437 -1.831079245 2.185684809e-38
13.77171135 9.927862167 -1.827175617 2.185684809e-38
13.73778152 10.03310966 -1.830872059 2.185684809e-38
13.68146038 10.12230682 -1.831677437 2.185684809e-38
13.6170063 10.2054863 -1.831457376 2.185684809e-38
13.5657692 10.29873562 -1.833100319 2.185684809e-38
13.48147488 10.36680317 -1.830337405 2.185684809e-38
13.4179163 10.45056438 -1.830443501 2.185684809e-38
10.67725086 8.422644615 -1.463649869 2.213235457e-38
10.52997684 8.412595749 -1.450564742 2.222419007e-38
10.37514877 8.39456749 -1.436359048 2.222419007e-38
10.26881123 8.414128304 -1.428812504 2.222419007e-38
10.09353161 8.375359535 -1.411603689 2.222419007e-38
9.959907532 8.369052887 -1.400128841 2.222419007e-38
9.816357613 8.352543831 -1.387186646 2.222419007e-38
9.545180321 8.327514648 -1.363317251 2.222419007e-38
9.405655861 8.308760643 -1.350700855 2.222419007e-38
9.314460754 8.331336975 -1.344978094 2.231602557e-38
9.181913376 8.315555573 -1.333238006 2.231602557e-38
9.19772625 8.539286613 -1.350766182 2.222419007e-38
9.168992996 8.618837357 -1.354351282 2.222419007e-38
12.27477551 11.68202686 -1.823740363 2.185684809e-38
12.23931885 11.79340935 -1.829275489 2.185684809e-38
12.15116596 11.85422707 -1.82701993 2.185684809e-38
11.98551178 11.98553181 -1.824266076 2.185684809e-38
11.93155193 12.08006096 -1.827389002 2.185684809e-38
11.77169418 12.21682358 -1.825909734 2.185684809e-38
11.59508419 12.3352375 -1.822038174 2.185684809e-38
11.54361725 12.43367958 -1.825999141 2.185684809e-38
11.46222401 12.50020981 -1.825321555 2.185684809e-38
11.36843586 12.55289364 -1.82271564 2.185684809e-38
11.26763821 12.59731197 -1.819010735 2.185684809e-38
11.19405556 12.6718626 -1.819744825 2.185684809e-38
11.14950848 12.77985859 -1.825315118 2.185684809e-38
11.02985096 12.80166149 -1.818650961 2.185684809e-38
10.78759766 13.00066948 -1.818222404 2.185684809e-38
10.66514015 13.01592064 -1.811139345 2.185684809e-38
10.40840816 13.02804661 -1.794762135 2.185684809e-38
10.29908562 13.0558939 -1.789820671 2.185684809e-38
10.19313717 13.08727932 -1.785431504 2.194868358e-38
10.07383633 13.10046005 -1.778711796 2.194868358e-38
9.972002983 13.13529205 -1.775051117 2.194868358e-38
9.825434685 13.1098547 -1.763325095 2.194868358e-38
9.704798698 13.11705494 -1.75620544 2.194868358e-38
9.581999779 13.12010574 -1.748602033 2.194868358e-38
9.465696335 13.13056183 -1.742202997 2.194868358e-38
9.359318733 13.15368652 -1.737549543 2.194868358e-38
9.264374733 13.19214916 -1.735046744 2.194868358e-38
9.127728462 13.17002678 -1.724681377 2.194868358e-38
8.910552979 13.20250702 -1.714376807 2.194868358e-38
8.816413879 13.23890591 -1.711981535 2.194868358e-38
4.447431087 6.768744469 -0.8716719747 2.268336755e-38
4.380492687 6.757587433 -0.8667307496 2.268336755e-38
4.341086388 6.788356304 -0.8672178984 2.268336755e-38
4.306185246 6.826462269 -0.8686665893 2.268336755e-38
4.282506943 6.882900715 -0.8724611998 2.268336755e-38
8.045927048 13.29528904 -1.672616124 2.204051908e-38
7.957057953 13.33383942 -1.671242833 2.204051908e-38
7.830003738 13.30726433 -1.661812305 2.204051908e-38
7.726535797 13.31912994 -1.65733695 2.204051908e-38
7.627958775 13.33862019 -1.653823376 2.204051908e-38
7.513952732 13.32986069 -1.646950245 2.204051908e-38
7.432561874 13.37827492 -1.647211432 2.204051908e-38
7.302844048 13.33839798 -1.636727333 2.204051908e-38
7.226801395 13.39549351 -1.638217807 2.204051908e-38
7.116142273 13.38790607 -1.63184011 2.204051908e-38
6.994458675 13.35768986 -1.622852087 2.204051908e-38
6.89919281 13.37638474 -1.619953156 2.204051908e-38
6.803026676 13.39254284 -1.616775513 2.204051908e-38
6.707061291 13.40832615 -1.613640666 2.204051908e-38
6.601688862 13.40428448 -1.608197331 2.204051908e-38
6.498314381 13.40281296 -1.603191376 2.204051908e-38
6.411125183 13.43399239 -1.602126122 2.204051908e-38
6.296873093 13.40728378 -1.594259262 2.204051908e-38
6.126133442 13.47436714 -1.593135118 2.204051908e-38
6.029120922 13.48168373 -1.589543343 2.204051908e-38
5.870311737 13.57463932 -1.591844678 2.204051908e-38
5.77900362 13.59374046 -1.589814782 2.204051908e-38
5.697028637 13.63447571 -1.590476036 2.204051908e-38
5.608725548 13.65995216 -1.589324832 2.204051908e-38
5.524842262 13.69621468 -1.589527011 2.204051908e-38
5.456874371 13.77256107 -1.594456792 2.204051908e-38
5.379271507 13.82564259 -1.596767902 2.204051908e-38
5.28992033 13.84893894 -1.595604897 2.204051908e-38
5.221353531 13.92711639 -1.60088706 2.204051908e-38
5.148251534 13.99482441 -1.604998112 2.204051908e-38
5.06346035 14.03166962 -1.605601311 2.204051908e-38
4.98179245 14.07733917 -1.607265234 2.204051908e-38
4.885956287 14.08284855 -1.604392052 2.204051908e-38
4.800043106 14.11643124 -1.60481286 2.204051908e-38
4.718655586 14.16402721 -1.606868863 2.204051908e-38
4.639439583 14.21875095 -1.609799147 2.204051908e-38
4.552872181 14.25172329 -1.610305071 2.204051908e-38
4.470160007 14.29728222 -1.612294674 2.204051908e-38
4.388870239 14.34824944 -1.614971519 2.204051908e-38
4.3030653 14.38508511 -1.616085887 2.204051908e-38
4.221459389 14.43691635 -1.618920088 2.204051908e-38
4.134873867 14.47250652 -1.62001884 2.204051908e-38
4.067546368 14.57760811 -1.628922343 2.204051908e-38
3.969647408 14.57424641 -1.625769258 2.204051908e-38
3.884957075 14.61932278 -1.628107309 2.204051908e-38
3.804994106 14.68361759 -1.632600665 2.204051908e-38
3.710726023 14.69358349 -1.631132245 2.204051908e-38
3.630857229 14.76104069 -1.636129856 2.204051908e-38
3.539135456 14.78180599 -1.635946393 2.204051908e-38
3.453662634 14.82906532 -1.638801098 2.204051908e-38
3.358638763 14.83574772 -1.637193084 2.204051908e-38
3.285078287 14.9393959 -1.646384954 2.204051908e-38
3.191052198 14.95197773 -1.645507812 2.204051908e-38
3.110446453 15.02910328 -1.651875496 2.204051908e-38
1.737524986 8.66506958 -0.9511458874 2.259153205e-38
1.675792336 8.633680344 -0.9465475678 2.259153205e-38
1.621133089 8.637458801 -0.945843339 2.259153205e-38
2.755270958 15.19817352 -1.66242969 2.204051908e-38
2.664815187 15.23513794 -1.664666414 2.204051908e-38
2.570358276 15.25043011 -1.664593935 2.204051908e-38
2.395903826 15.37291622 -1.674588442 2.204051908e-38
2.305118084 15.41653347 -1.677755594 2.204051908e-38
2.212690592 15.45129299 -1.679994822 2.194868358e-38
2.121085882 15.4940052 -1.683189869 2.194868358e-38
2.026759148 15.51831913 -1.684425592 2.194868358e-38
1.933009982 15.54878807 -1.686406732 2.194868358e-38
1.845772743 15.63650322 -1.694649458 2.194868358e-38
1.748297691 15.64040947 -1.693898559 2.194868358e-38
1.656757355 15.70044613 -1.699246049 2.194868358e-38
1.566248775 15.7773037 -1.70650053 2.194868358e-38
1.469055057 15.79080772 -1.706890464 2.194868358e-38
1.375413299 15.84621525 -1.711950064 2.194868358e-38
1.278136969 15.86393356 -1.712968111 2.194868358e-38
1.183834195 15.92354298 -1.718586206 2.194868358e-38
1.086879492 15.95228863 -1.720909476 2.194868358e-38
0.9864111543 15.93096542 -1.717967868 2.194868358e-38
0.8866299987 15.9132328 -1.715438724 2.194868358e-38
0.7856811881 15.86770916 -1.70996058 2.194868358e-38
0.5895649195 15.88140106 -1.710520744 2.194868358e-38
0.4902179539 15.84886265 -1.706629276 2.194868358e-38
0.3909336627 15.80238533 -1.70132935 2.194868358e-38
0.2936279476 15.82304859 -1.703343868 2.194868358e-38
0.1955951154 15.81493855 -1.702297211 2.194868358e-38
0.09779538214 15.8222971 -1.703037977 2.194868358e-38
-1.950478509e-05 15.73074627 -1.693124652 2.194868358e-38
-0.0974394381 15.75137997 -1.695393205 2.194868358e-38
-0.1941546053 15.69710064 -1.689607739 2.194868358e-38
-0.3873923123 15.65798473 -1.685803413 2.194868358e-38
-0.4837343097 15.63815975 -1.683957577 2.194868358e-38
-0.579870522 15.62059879 -1.682427526 2.194868358e-38
-0.6750469804 15.58379745 -1.67886889 2.194868358e-38
-0.7721114755 15.59356499 -1.680421233 2.194868358e-38
-0.8664596677 15.55105019 -1.676365852 2.194868358e-38
-0.9638450742 15.565135 -1.678501725 2.204051908e-38
-1.0588938 15.54171753 -1.676647425 2.204051908e-38
-1.152075291 15.49571037 -1.672424316 2.204051908e-38
-1.246490479 15.4707737 -1.670567274 2.204051908e-38
-1.342285037 15.46479797 -1.670763254 2.204051908e-38
-1.437124014 15.44774055 -1.669854283 2.204051908e-38
-1.533182383 15.44380951 -1.670393825 2.204051908e-38
-1.624555826 15.39516449 -1.666213751 2.204051908e-38
-1.724101901 15.42426586 -1.67049396 2.204051908e-38
-1.904865146 15.32238102 -1.66184926 2.204051908e-38
-2.000325918 15.31554604 -1.662428856 2.204051908e-38
-2.098314285 15.32740402 -1.665079355 2.204051908e-38
-2.188805342 15.28436947 -1.661882281 2.204051908e-38
-2.277566195 15.23218536 -1.657690048 2.204051908e-38
-2.37711215 15.25257111 -1.661488295 2.204051908e-38
-2.464932442 15.19761562 -1.657112718 2.204051908e-38
-2.563243151 15.20801067 -1.65994978 2.204051908e-38
-2.648329496 15.14085007 -1.654376864 2.204051908e-38
-2.750058651 15.16932011 -1.659323096 2.204051908e-38
-2.834781647 15.10380173 -1.654043674 2.204051908e-38
-2.922830582 15.05853367 -1.650997519 2.204051908e-38
-3.018275738 15.05198956 -1.652317405 2.204051908e-38
-3.209899664 15.04037952 -1.655239582 2.204051908e-38
-1.916953325 8.717718124 -0.9606658816 2.259153205e-38
-1.969542265 8.700060844 -0.9600462317 2.259153205e-38
-2.031242609 8.721716881 -0.9638009667 2.259153205e-38
-3.577672005 14.94268131 -1.653750777 2.204051908e-38
-3.675026655 14.94074345 -1.656044006 2.204051908e-38
-3.769305468 14.92554855 -1.656875968 2.204051908e-38
-3.870523453 14.93632221 -1.660707593 2.204051908e-38
-3.955578089 14.88504982 -1.657661557 2.204051908e-38
-4.05955267 14.90436745 -1.662609339 2.204051908e-38
-4.159119129 14.90573406 -1.665586591 2.204051908e-38
-4.246260166 14.86239719 -1.663675785 2.204051908e-38
-4.355950356 14.89677906 -1.670497179 2.204051908e-38
-4.461838245 14.9158287 -1.675681829 2.204051908e-38
-4.550516605 14.87672901 -1.674418807 2.204051908e-38
-4.655838966 14.89106846 -1.679237366 2.194868358e-38
-4.764030933 14.91273117 -1.685009122 2.194868358e-38
-4.862522602 14.90239239 -1.687198281 2.194868358e-38
-4.968812943 14.91477966 -1.692036629 2.194868358e-38
-5.055742741 14.8683157 -1.690244555 2.194868358e-38
-5.168211937 14.89627266 -1.697056413 2.194868358e-38
-5.251589775 14.83960533 -1.694260001 2.194868358e-38
-5.377125263 14.90084839 -1.705033541 2.194868358e-38
-5.463748455 14.85238838 -1.703301311 2.194868358e-38
-5.570011139 14.85707378 -1.707757115 2.194868358e-38
-5.683115482 14.87824345 -1.714206576 2.194868358e-38
-5.781788349 14.86023712 -1.716224432 2.194868358e-38
-5.89430809 14.87647152 -1.722266674 2.194868358e-38
-6.093937397 14.84153748 -1.72678566 2.194868358e-38
-6.204941273 14.84987354 -1.732247114 2.194868358e-38
-6.41225481 14.82777786 -1.738753915 2.194868358e-38
-6.533010483 14.85426521 -1.746574998 2.194868358e-38
-6.625361443 14.81497002 -1.746754408 2.194868358e-38
-6.743475914 14.83224487 -1.753631115 2.194868358e-38
-6.848789215 14.81984043 -1.757183075 2.194868358e-38
-6.946775436 14.79109192 -1.758737445 2.194868358e-38
-7.017133236 14.70391178 -1.753494263 2.194868358e-38
-7.116102695 14.67708969 -1.755511761 2.194868358e-38
-7.19244194 14.60378933 -1.752029538 2.194868358e-38
-7.302298069 14.59831905 -1.75675869 2.194868358e-38
-7.463141918 14.46978855 -1.7522645 2.194868358e-38
-4.354836464 8.193007469 -0.9986005425 2.259153205e-38
-4.394696712 8.146110535 -0.9961743951 2.259153205e-38
-4.444907188 8.118562698 -0.9961515665 2.259153205e-38
-4.523282528 8.141803741 -1.002415776 2.259153205e-38
-7.994566917 14.18259907 -1.752219558 2.194868358e-38
-8.065335274 14.10350037 -1.748576522 2.194868358e-38
-8.163359642 14.07222462 -1.750921607 2.194868358e-38
-8.238942146 14.00229931 -1.748531222 2.194868358e-38
-8.333264351 13.96431923 -1.750189304 2.194868358e-38
-8.521761894 13.8869648 -1.75357306 2.194868358e-38
-8.679413795 13.75917053 -1.750852942 2.194868358e-38
-8.739553452 13.66648483 -1.745904207 2.194868358e-38
-8.845489502 13.64544487 -1.750171542 2.194868358e-38
-5.81027174 8.842933655 -1.13878417 2.240786106e-38
-5.841488361 8.771789551 -1.134250402 2.240786106e-38
-5.924014091 8.777542114 -1.139711976 2.240786106e-38
-9.167158127 13.40330982 -1.747673392 2.194868358e-38
-9.23293972 13.32191467 -1.744469166 2.194868358e-38
-9.316058159 13.2658329 -1.744636774 2.194868358e-38
-9.387134552 13.19283199 -1.742637038 2.194868358e-38
-9.476392746 13.14540863 -1.74408114 2.194868358e-38
-9.633779526 13.02115059 -1.743270755 2.194868358e-38
-9.724134445 12.97468758 -1.745070696 2.194868358e-38
-9.801527023 12.91081142 -1.744598389 2.194868358e-38
-9.866491318 12.83088398 -1.742007732 2.194868358e-38
-9.964254379 12.79343128 -1.74525702 2.194868358e-38
-10.00320816 12.68093109 -1.738316059 2.194868358e-38
-10.09288311 12.63315678 -1.740291953 2.194868358e-38
-10.18453312 12.58743286 -1.742634892 2.194868358e-38
-10.25217247 12.51199818 -1.740934372 2.194868358e-38
-10.39904881 12.37585354 -1.739752412 2.194868358e-38
-10.4790144 12.31552505 -1.740353823 2.194868358e-38
-10.56362247 12.26052761 -1.74177897 2.194868358e-38
-10.61282825 12.16471291 -1.73745501 2.194868358e-38
-10.73332977 12.15031719 -1.744848251 2.194868358e-38
-10.79415989 12.06793213 -1.742572188 2.194868358e-38
-10.85547829 11.98646259 -1.740467668 2.194868358e-38
-8.075399399 8.806708336 -1.285983086 2.231602557e-38
-8.128902435 8.755742073 -1.28585875 2.231602557e-38
-8.220270157 8.74505043 -1.291727066 2.231602557e-38
-8.297569275 8.718647957 -1.295381784 2.231602557e-38
-8.411140442 8.729221344 -1.304656267 2.231602557e-38
-8.489057541 8.70170784 -1.308366418 2.231602557e-38
-8.615562439 8.722820282 -1.319526792 2.231602557e-38
-8.696518898 8.696557999 -1.323665142 2.231602557e-38
-8.809754372 8.701508522 -1.332683444 2.231602557e-38
-8.902529716 8.685028076 -1.338567615 2.231602557e-38
-9.037989616 8.708762169 -1.35081327 2.222419007e-38
-11.66924191 11.10577488 -1.733775854 2.194868358e-38
-9.48781395 8.918493271 -1.401444674 2.222419007e-38
-9.521199226 8.839608192 -1.398273468 2.222419007e-38
-9.533395767 8.741797447 -1.392097116 2.222419007e-38
-9.794480324 8.760698318 -1.414289713 2.222419007e-38
-12.15725613 10.60631371 -1.736388087 2.194868358e-38
-12.20588112 10.51652718 -1.734015107 2.194868358e-38
-12.23791218 10.4129324 -1.729378104 2.194868358e-38
-12.33856392 10.36770439 -1.734508753 2.194868358e-38
-12.38807869 10.27925682 -1.732495904 2.194868358e-38
-12.45399666 10.20457554 -1.73286593 2.194868358e-38
-12.52318954 10.1324892 -1.733738065 2.194868358e-38
-12.57830715 10.04905891 -1.732733965 2.194868358e-38
-12.62605762 9.959884644 -1.730789542 2.194868358e-38
-12.69706535 9.88912487 -1.7321105 2.194868358e-38
-12.76224232 9.813729286 -1.732692003 2.194868358e-38
-12.82908058 9.739451408 -1.733546376 2.194868358e-38
-12.88282108 9.655256271 -1.732711673 2.194868358e-38
-12.91257095 9.553427696 -1.728734851 2.194868358e-38
-12.98049641 9.480036736 -1.729942918 2.194868358e-38
-13.03730583 9.398406029 -1.729737282 2.194868358e-38
-13.11704063 9.333197594 -1.732622147 2.194868358e-38
-13.19776249 9.268206596 -1.735685468 2.194868358e-38
-13.20616245 9.152711868 -1.7293154 2.194868358e-38
-13.28121758 9.083609581 -1.731748223 2.194868358e-38
-13.30269527 8.978103638 -1.72727716 2.194868358e-38
-13.33697414 8.881701469 -1.724565983 2.194868358e-38
-13.44784927 8.717360497 -1.724824667 2.194868358e-38
-13.58906174 8.572085381 -1.729206085 2.194868358e-38
-13.61592102 8.471785545 -1.725921512 2.194868358e-38
-13.68988323 8.400808334 -1.728683829 2.194868358e-38
-13.72529507 8.306131363 -1.726631641 2.194868358e-38
-13.78006268 8.223280907 -1.727088809 2.194868358e-38
-13.87028313 8.04616642 -1.725793839 2.194868358e-38
-13.90352821 7.950910568 -1.723778725 2.194868358e-38
