# .PCD v0.7 - Point Cloud Data file format
VERSION 0.7
FIELDS x y z rgb
SIZE 4 4 4 4
TYPE F F F F
COUNT 1 1 1 1
WIDTH 1143
HEIGHT 1
VIEWPOINT 0 0 0 1 0 0 0
POINTS 1143
DATA ascii
42.959087 -1.212616 -0.806885 0.000000
36.617912 2.142488 -0.984554 0.717647
11.099631 -16.600712 0.492232 0.000000
12.061563 15.835967 -0.373095 0.000000
11.355453 4.390489 -1.971135 0.000000
19.373219 -0.625906 -0.647473 0.215686
43.474812 -4.116374 -1.800861 0.443137
19.785334 -0.580922 -0.556408 0.215686
18.634626 -6.618462 -1.995219 0.000000
10.890257 -17.414808 0.993756 0.000000
8.840038 -2.482815 -1.961822 0.000000
19.892933 12.998282 -0.255986 0.000000
135.086945 -27.114731 4.978134 0.000000
73.579216 -50.661060 13.406133 0.000000
23.849703 19.354666 1.617659 0.000000
11.754769 6.656324 0.356184 0.000000
20.779463 16.797644 0.695613 0.000000
6.382730 -6.320959 -0.866129 0.000000
93.689743 -31.989431 9.606026 0.000000
24.980885 -18.301802 2.063110 0.000000
55.238285 -43.408951 1.322244 0.000000
12.303311 -0.595509 -1.976702 0.000000
8.994040 -3.442747 -1.961070 0.000000
20.594234 8.122972 -1.314412 0.000000
85.401962 -28.081163 1.704942 0.000000
20.163534 20.914646 1.309958 0.000000
19.825033 13.108026 -0.253336 0.000000
19.143597 -13.419357 -1.831439 0.000000
25.797232 -16.148098 2.521191 0.000000
63.222202 41.626938 3.933200 0.000000
7.652212 -6.194160 -1.445550 0.000000
107.870842 -21.872141 -1.233407 0.000000
12.298115 -14.362226 -0.883248 0.000000
14.265370 -14.843926 -0.720882 0.000000
11.216178 18.300354 0.382994 0.000000
131.503418 7.638608 -2.184064 0.000000
92.877556 -35.186485 5.299051 0.000000
9.792137 2.848587 -1.966401 0.000000
8.634270 -2.528962 -1.960946 0.000000
9.824040 -15.296921 -0.709003 0.000000
5.545469 -6.451402 -0.798923 0.000000
81.211578 -82.265694 6.886717 0.000000
27.026039 -21.590170 1.806067 0.000000
48.805347 36.931511 8.729504 0.000000
66.307335 -24.643873 -0.342909 0.000000
5.311806 -6.376398 -0.925410 0.000000
9.235910 8.474947 -1.394265 0.000000
16.280197 -14.776653 -1.017260 0.000000
139.857559 -21.644400 -1.412915 0.000000
10.097057 -4.459136 -1.963892 0.000000
11.934815 -16.874096 0.676182 0.000000
74.317673 -64.548027 15.870932 0.000000
57.441486 -24.728706 -1.249649 0.000000
14.206127 3.365818 -1.983405 0.000000
83.129845 -81.917877 9.346057 0.000000
9.368623 -15.996992 -0.345720 0.000000
26.734264 -15.111904 4.194712 0.000000
5.362107 -6.336102 -0.943570 0.000000
13.662516 12.185802 -1.772862 0.000000
30.327410 -13.665102 1.648550 0.000000
5.877038 -6.384626 -0.857465 0.000000
12.646444 -16.238977 0.240034 0.000000
9.106650 6.151947 -1.904011 0.000000
43.468365 -4.292665 -1.359638 0.443137
86.400810 7.979110 0.469165 0.000000
14.640295 12.551650 -1.373544 0.000000
46.646950 11.251634 4.548643 0.000000
10.581787 13.316879 -1.639737 0.000000
13.503715 16.705860 0.219261 0.000000
118.067940 154.481155 9.992938 0.000000
6.991414 -6.195385 -1.259572 0.000000
28.932312 -14.435127 1.226088 0.000000
46.876923 15.100753 0.731834 0.000000
18.731781 -3.632069 -0.436996 0.000000
26.179319 12.089334 -0.427710 0.000000
19.783255 14.155927 -0.066932 0.000000
68.628883 -8.693164 -0.524054 0.000000
17.229610 -1.288539 -1.995215 0.000000
5.633307 -6.636374 -0.706503 0.000000
108.803932 -24.687025 -0.005421 0.000000
12.408716 14.395226 -1.081869 0.000000
20.895048 20.582306 1.440947 0.000000
26.307421 11.904160 -0.516202 0.000000
12.286899 -1.837597 -1.975898 0.000000
49.974968 25.126814 7.795274 0.000000
12.439416 6.265601 -1.820736 0.000000
27.471884 -14.907403 2.032301 0.000000
25.037952 -1.876394 -2.024790 0.000000
5.720433 -6.295173 -0.936712 0.000000
9.201645 2.170798 -1.964581 0.000000
77.932167 -53.618843 9.123611 0.000000
44.411083 10.911747 1.036706 0.000000
18.060278 0.444248 -1.402645 0.211765
22.530788 14.187157 0.462075 0.000000
7.618927 0.548234 -1.959067 0.000000
28.085304 -15.204211 2.361583 0.000000
130.158951 -18.405334 -2.265090 0.000000
11.538505 -16.359076 0.388107 0.000000
14.101957 14.721080 -0.528843 0.000000
46.704906 31.096462 5.352416 0.000000
36.172523 26.283188 2.388289 0.000000
13.815771 15.750470 -0.135136 0.000000
28.202749 -12.818859 -1.871696 0.000000
10.264859 -14.387954 -1.217686 0.000000
12.788528 -17.810598 1.191024 0.000000
16.389412 -15.862329 -0.292221 0.000000
85.596375 2.365488 -2.256932 0.000000
18.431669 -2.573154 -1.999019 0.000000
86.074036 -79.541504 6.256918 0.000000
10.318670 8.423905 -1.807361 0.000000
6.111694 -6.898422 -0.545437 0.000000
13.232680 -17.340595 0.873789 0.000000
11.371427 -16.354870 0.392354 0.000000
9.817776 -16.546003 0.138364 0.000000
8.887224 1.069651 -1.963853 0.000000
7.147090 -6.431132 -0.662140 0.000000
36.982933 35.675835 5.343444 0.000000
31.002125 -14.235193 2.523222 0.000000
7.878818 8.461428 -1.527078 0.000000
26.717339 1.159775 -2.032049 0.000000
51.248310 26.655287 9.071096 0.000000
22.687006 8.173822 -0.910478 0.000000
32.496765 8.033804 -0.850781 0.000000
35.987083 2.725671 -0.906422 0.713726
8.055336 4.375428 -1.957428 0.000000
11.033897 -1.046817 -1.971627 0.000000
25.324501 11.647510 -0.825869 0.000000
99.378662 -30.322186 8.491349 0.000000
59.173084 -24.648991 -0.917734 0.000000
42.945065 -0.279094 -0.835049 0.000000
58.935600 -27.652704 0.011982 0.000000
12.700960 17.064606 0.244727 0.000000
43.532776 7.233957 -1.942982 0.000000
15.345330 -20.403982 2.155752 0.000000
12.459643 -2.692312 -1.975793 0.000000
96.221153 -32.166840 3.930456 0.000000
12.125527 4.301712 -1.974354 0.000000
37.270100 52.756248 3.426533 0.000000
68.627647 -4.110919 -1.992947 0.000000
15.409040 13.831884 -0.614014 0.000000
70.330223 -22.864101 -1.022648 0.000000
31.256905 28.950651 2.929741 0.000000
45.727688 8.766421 2.126107 0.000000
21.206915 -12.612642 -1.842419 0.000000
31.674725 30.813181 2.963461 0.000000
84.033348 -35.230156 11.505408 0.000000
35.996864 27.364206 2.640559 0.000000
20.635349 7.213537 -1.853224 0.000000
66.721107 -23.026957 -0.920470 0.000000
50.458942 9.429418 1.878079 0.000000
119.661552 -30.911545 9.976672 0.000000
55.595272 -15.447732 -2.130575 0.000000
20.575436 12.639189 -0.481156 0.000000
9.445679 -16.194473 -0.192471 0.000000
91.913658 24.524120 -1.308959 0.000000
30.254761 16.043205 0.438229 0.000000
99.994995 -32.753910 4.567790 0.000000
27.990225 -15.010530 6.859790 0.000000
12.558831 -18.143267 1.409890 0.000000
44.336010 12.049746 -1.943266 0.000000
25.453991 -15.165202 -1.855350 0.000000
21.038370 9.373338 -1.852312 0.000000
16.738567 19.796082 1.024046 0.000000
66.944473 -48.352837 4.604587 0.000000
12.173294 16.431276 -0.073706 0.000000
14.587973 -3.848793 -1.982845 0.000000
13.501486 17.950918 0.725927 0.000000
24.470184 -21.835108 -0.552548 0.000000
33.122379 29.306566 6.477408 0.000000
119.134697 -30.322735 9.587004 0.000000
132.436981 -28.162178 14.441771 0.000000
13.467496 18.101286 0.766995 0.000000
43.908840 -14.055541 -1.176312 0.000000
13.397964 5.452386 -1.978221 0.000000
18.934305 8.303860 -1.352213 0.000000
83.328690 -25.652082 0.252248 0.000000
11.736678 -14.428363 -0.826162 0.000000
45.361038 7.877823 -1.674700 0.000000
9.325585 6.723177 -1.806360 0.000000
24.658487 12.512465 -0.423297 0.000000
14.892558 14.143183 -0.598403 0.000000
12.558610 15.965746 -0.307903 0.000000
9.918041 -14.203048 -1.429073 0.000000
13.026020 -2.634552 -1.978055 0.000000
64.677811 -50.439701 3.932897 0.000000
20.759073 0.190698 -2.009192 0.000000
17.779568 -3.342232 -0.939908 0.000000
95.321045 -33.320507 15.135589 0.000000
13.096839 -15.620093 -0.168408 0.000000
72.911018 88.527283 12.221781 0.000000
47.766621 7.837616 -0.950501 0.000000
9.200756 -2.811319 -1.962826 0.000000
71.897324 11.298162 -1.934815 0.000000
9.268842 9.497325 -1.799784 0.000000
17.282320 -11.054796 -1.828688 0.000000
16.169695 -16.352501 0.072887 0.000000
83.075386 -82.091415 13.452394 0.000000
12.175008 -3.972864 -1.973106 0.000000
9.954901 -15.437248 -0.581311 0.000000
15.157397 0.440078 -1.987855 0.000000
56.404655 -23.904428 -1.732487 0.000000
11.973438 15.789075 -0.396664 0.000000
7.061200 -6.192225 -1.578934 0.000000
19.445421 17.813271 0.533649 0.000000
8.741153 -6.185481 -1.266335 0.000000
53.166164 -35.029793 0.281609 0.000000
68.136124 -21.340054 -1.372680 0.000000
9.695147 16.552366 -0.223682 0.000000
18.627411 -7.932333 -1.761546 0.000000
30.352551 -17.294405 -1.872014 0.000000
5.583423 -6.282579 -1.023845 0.000000
12.944586 12.604151 -1.757629 0.000000
16.852316 -15.711512 -0.481321 0.000000
45.774796 32.228958 4.392869 0.000000
4.352273 6.788133 0.213580 0.000000
9.554352 -15.827800 -0.414848 0.000000
98.222206 8.608631 -1.381397 0.000000
73.028137 5.805665 2.723199 0.000000
34.014175 27.618853 6.481837 0.000000
13.384241 16.008232 -0.122899 0.000000
7.718989 -6.186110 -1.238159 0.000000
74.435501 -22.381279 -1.424461 0.000000
12.657249 16.698051 0.060374 0.000000
25.543289 -21.079439 5.824263 0.000000
10.938300 -15.335976 -0.407044 0.000000
8.486247 7.669587 -1.800392 0.000000
19.517885 -9.569182 -1.993815 0.000000
14.366392 2.411153 -1.984537 0.000000
32.814087 28.693838 3.682248 0.000000
4.394368 6.767442 -0.032755 0.000000
26.347809 -20.541553 1.955380 0.000000
4.433438 6.768224 0.567822 0.000000
16.139721 11.377368 -1.539647 0.000000
9.474200 0.445226 -1.966158 0.000000
62.943226 -16.289696 -2.006144 0.000000
20.973049 15.661886 0.532705 0.000000
11.289659 5.188097 -1.969859 0.000000
27.641434 -18.728537 3.262243 0.000000
10.985905 7.245076 -1.812799 0.000000
64.115868 -53.207577 3.648304 0.000000
6.105573 -6.297927 -0.873710 0.000000
21.257729 11.046101 -1.494054 0.000000
12.768639 -14.825440 -0.631851 0.000000
12.086079 -5.834761 -1.969672 0.000000
18.792347 -4.178450 -0.464860 0.000000
19.204229 16.137033 0.153194 0.000000
13.063554 -1.465613 -1.979153 0.000000
13.250058 17.837383 0.666976 0.000000
29.412477 36.782261 2.415359 0.000000
10.835056 0.508289 -1.971358 0.000000
17.109735 -2.273361 -1.994147 0.000000
20.931496 4.969939 -2.008703 0.000000
13.305971 -17.082500 0.711122 0.000000
17.732424 -3.490170 -0.961768 0.000000
12.153069 -15.157573 -0.387584 0.000000
9.892533 6.899478 -1.808572 0.000000
18.791178 17.788694 0.387076 0.000000
6.805526 -6.201409 -1.248495 0.000000
53.815956 27.535097 12.216265 0.000000
44.549587 -4.075228 -0.864886 0.443137
43.619534 -28.221376 -1.907598 0.000000
43.623966 -4.679502 -1.184476 0.443137
134.963959 -27.334558 9.954235 0.000000
46.145920 33.036640 4.926259 0.000000
33.458359 26.713142 4.235763 0.000000
22.078350 -12.631351 -1.846156 0.000000
11.555470 14.726934 -0.930771 0.000000
10.178563 14.793327 -0.897093 0.000000
34.326553 -3.284334 -2.059585 0.000000
35.004971 -25.890432 -1.872763 0.000000
65.976509 71.980774 7.614381 0.000000
12.510863 8.346420 -0.768720 0.000000
13.381041 16.602501 0.143367 0.000000
43.868114 -36.532005 -1.827027 0.000000
26.312986 35.438465 2.399818 0.000000
81.728828 -82.973572 7.319469 0.000000
27.374073 10.264771 -1.310170 0.000000
78.682068 -55.199574 9.746144 0.000000
34.187050 27.537809 4.796376 0.000000
84.980087 -32.392384 12.302562 0.000000
13.119520 -14.685763 -0.740708 0.000000
19.565924 16.495178 0.316703 0.000000
4.324596 6.793764 -0.431825 0.000000
11.503819 0.675396 -1.973917 0.000000
26.245079 -13.701099 -1.861801 0.000000
69.902046 -36.117264 15.792150 0.000000
20.295891 12.188062 -0.760609 0.000000
47.870907 -33.321350 -1.308878 0.000000
4.294600 6.869473 0.158378 0.000000
12.530386 1.023286 -1.977828 0.000000
20.381893 20.073273 1.208788 0.000000
15.855668 9.315885 -1.830466 0.000000
20.990339 -6.309803 -2.005087 0.000000
18.870481 -0.690866 -0.810082 0.215686
10.007259 -16.447849 0.118442 0.000000
119.836052 -9.582685 -0.853748 0.219608
13.068881 -7.473907 -1.970571 0.000000
12.335073 13.366870 -1.561531 0.000000
82.106293 8.373303 -1.159138 0.000000
12.076351 -6.973049 -1.967345 0.000000
9.138253 -3.846091 -1.960998 0.000000
46.651138 7.246428 -1.955025 0.000000
48.312553 -34.350327 -0.900624 0.000000
20.741316 16.518055 0.632734 0.000000
25.059879 8.997895 -1.869200 0.000000
45.094654 -3.345470 -1.233167 0.439216
9.664355 0.945234 -1.966859 0.000000
10.455455 8.387752 -1.425665 0.000000
22.802109 15.840263 1.051658 0.000000
18.061567 15.315791 -0.214648 0.000000
20.960957 17.106644 0.802051 0.000000
11.795952 -4.775743 -1.970344 0.000000
7.616713 8.448094 -0.756303 0.000000
36.369595 1.993870 -1.891077 0.717647
24.990273 11.858658 -0.755270 0.000000
8.339182 -6.204039 -1.129814 0.000000
131.985748 -27.752563 10.344549 0.000000
25.441885 -20.605476 3.295754 0.000000
18.149412 12.278520 -0.854371 0.000000
31.341833 16.035769 0.471066 0.000000
8.646819 -1.412415 -1.962189 0.000000
20.494406 -6.434258 -1.714069 0.000000
68.478539 -7.813814 -1.643141 0.000000
35.518288 27.450542 3.940945 0.000000
72.993141 5.710941 0.521743 0.000000
10.021132 -3.944384 -1.964455 0.000000
10.466424 -4.630404 -1.965120 0.000000
10.697518 -6.392738 -1.962611 0.000000
6.699629 -6.196843 -1.356623 0.000000
29.455765 8.145984 -1.422439 0.000000
13.481272 7.772900 -1.822793 0.000000
45.767181 13.489502 2.506477 0.000000
20.218884 14.761313 0.162801 0.000000
6.490497 -6.268695 -0.915315 0.000000
17.881311 -4.181560 -0.848068 0.000000
9.602650 -5.721532 -1.959307 0.000000
28.624702 -17.051662 -0.328987 0.000000
14.547225 2.669832 -1.985124 0.000000
129.145004 3.632279 -2.423297 0.000000
12.432256 13.560398 -1.451247 0.000000
90.751175 -21.718559 -1.304998 0.000000
48.555504 -37.275246 -0.475302 0.000000
82.946777 -81.431458 8.944854 0.000000
12.827090 4.949749 -1.976483 0.000000
11.867227 6.095546 -1.942412 0.000000
32.901066 11.656323 -0.910555 0.000000
8.869915 2.931124 -1.962651 0.000000
48.803421 8.183736 1.116463 0.000000
9.849440 -14.517138 -1.232618 0.000000
82.500412 -82.808388 9.100752 0.000000
16.971947 -15.703745 -0.508764 0.000000
10.916390 14.249609 -1.170728 0.000000
63.759754 -31.517113 2.012573 0.000000
12.583621 14.354459 -1.058181 0.000000
9.027167 6.968878 -1.804491 0.000000
62.531708 -22.959894 -1.188593 0.000000
27.282187 -15.105496 5.025754 0.000000
12.086885 14.901202 -0.843183 0.000000
147.106201 -27.057203 7.738371 0.000000
36.543140 2.959544 -0.762219 0.713726
10.150560 -14.701817 -1.032693 0.000000
46.727566 10.497179 2.120954 0.000000
24.773279 11.123968 -1.223247 0.000000
12.247294 15.397349 -0.593703 0.000000
27.746912 -15.149446 3.621918 0.000000
57.248730 -53.955635 1.528462 0.000000
97.822319 -32.403675 12.608815 0.000000
130.904694 -27.154942 5.742660 0.000000
129.676331 -29.759840 8.441715 0.000000
14.837795 -16.146767 0.036474 0.000000
68.588081 -7.763907 -1.003258 0.000000
33.181335 24.893568 2.608786 0.000000
11.216203 14.607579 -0.990744 0.000000
36.316647 35.906254 5.090367 0.000000
9.196807 8.434731 -0.700860 0.000000
66.324707 71.647484 12.308125 0.000000
11.692260 5.609640 -1.970951 0.000000
73.321457 23.429195 -1.448396 0.000000
26.731535 -19.999695 1.756452 0.000000
23.980785 -17.842871 -1.842516 0.000000
32.963570 10.923155 -1.329075 0.000000
25.369843 35.881733 2.942758 0.000000
22.214863 21.146553 1.617781 0.000000
68.781715 -4.569819 -0.918356 0.000000
10.358485 -2.163445 -1.968136 0.000000
8.056454 1.495981 -1.960499 0.000000
14.873157 14.832154 -0.293677 0.000000
25.728811 -17.073481 -1.852256 0.000000
10.299991 -1.810023 -1.968242 0.000000
8.982516 7.817007 -1.802421 0.000000
135.659271 -25.331131 -0.044968 0.000000
13.007226 12.804048 -1.652833 0.000000
57.487720 7.193605 -1.996782 0.000000
12.526761 7.991744 -1.818240 0.000000
18.140835 -2.835694 -1.359934 0.000000
11.750424 -2.891573 -1.972802 0.000000
7.664992 8.414778 -0.808572 0.000000
10.099803 -15.869242 -0.251927 0.000000
47.920406 -33.744598 -1.185344 0.000000
69.176620 -25.808241 0.430924 0.000000
8.873198 -2.203471 -1.962285 0.000000
26.002100 -22.106544 5.134286 0.000000
18.278090 12.665076 -0.747369 0.000000
57.295986 -32.765171 0.968647 0.000000
8.002236 3.278404 -1.958755 0.000000
30.619917 11.311366 -1.060788 0.000000
83.082520 -25.227743 0.012089 0.000000
15.871488 12.108821 -1.276087 0.000000
112.615616 -45.111225 9.025128 0.000000
17.154701 -9.993249 -1.830477 0.000000
67.764885 7.932427 -2.036103 0.000000
20.018118 17.897543 0.701366 0.000000
8.384066 4.744659 -1.958240 0.000000
9.786731 0.341561 -1.967344 0.000000
14.910992 -2.877209 -1.985151 0.000000
27.797884 34.016766 2.427651 0.000000
44.402222 -4.784521 -0.955565 0.443137
18.048527 -0.089843 -1.422641 0.211765
26.454813 -16.861282 1.759581 0.000000
45.730816 -36.237835 -1.268681 0.000000
18.389378 -7.831523 -1.286263 0.000000
10.895421 14.731609 -0.928305 0.000000
9.721811 -15.751125 -0.425588 0.000000
9.869633 8.399723 -1.436442 0.000000
65.962456 72.048676 9.546179 0.000000
15.994385 15.494271 -0.052966 0.000000
46.292709 11.394485 0.443532 0.000000
25.561346 12.593637 -0.230003 0.000000
141.151245 -31.182365 2.720365 0.000000
8.049827 -0.985377 -1.960215 0.000000
13.740624 18.015005 0.729141 0.000000
8.874532 6.991775 -1.803737 0.000000
11.756893 6.751755 0.479492 0.000000
66.115631 -16.896309 -2.017917 0.000000
52.347275 7.703644 -1.048667 0.000000
26.777319 11.532543 -0.659485 0.000000
76.607971 -26.664299 0.886705 0.000000
10.853461 14.469615 -1.060080 0.000000
66.571365 70.567291 13.511389 0.000000
11.674015 1.082259 -1.974542 0.000000
33.153175 28.991119 5.700590 0.000000
25.934111 -17.851105 2.115622 0.000000
92.708641 -5.056520 -1.130234 0.000000
5.665631 -6.501157 -0.766183 0.000000
27.385918 35.494965 2.618998 0.000000
10.731239 13.534950 -1.530080 0.000000
46.583088 12.279949 0.591034 0.000000
9.337468 -3.366191 -1.962582 0.000000
24.692696 -20.203756 3.949989 0.000000
18.777351 19.982231 0.958084 0.000000
9.878894 3.335912 -1.966299 0.000000
58.814156 -24.849459 -0.926612 0.000000
99.053886 -30.137634 2.922144 0.000000
8.777122 -4.210050 -1.958849 0.000000
68.471497 -8.483268 -1.716431 0.000000
24.848259 -17.228874 2.572819 0.000000
53.951321 25.768740 1.874166 0.000000
132.967621 -40.385609 6.895352 0.000000
19.798941 -6.424291 -1.248867 0.000000
4.362379 6.780800 -0.085081 0.000000
46.358185 11.689569 3.091002 0.000000
25.083223 -23.873222 2.064285 0.000000
19.719711 5.969038 -1.869799 0.000000
102.420502 -22.084723 -1.472633 0.000000
66.134773 71.079147 11.971479 0.000000
8.872412 1.469406 -1.963670 0.000000
10.412993 -16.664022 0.365595 0.000000
10.385327 -14.896386 -0.842449 0.000000
60.431137 -22.867580 -1.431508 0.000000
9.040488 7.556215 -1.803282 0.000000
40.301823 5.953506 -1.930977 0.000000
18.515146 -1.344104 -2.000104 0.000000
5.602795 -6.250509 -1.126995 0.000000
19.921499 13.929563 -0.072917 0.000000
140.906418 -22.769291 -1.011058 0.000000
21.173336 16.706369 0.782858 0.000000
116.419182 -23.664246 -0.580665 0.000000
49.281067 11.009887 4.949960 0.000000
23.389874 12.058232 -0.890893 0.000000
11.501943 -16.146925 0.260890 0.000000
25.060417 12.291923 -0.488577 0.000000
65.633942 79.050224 6.754828 0.000000
143.480988 -22.277531 -1.185513 0.000000
49.122677 -33.526821 -0.860497 0.000000
24.453482 15.398451 1.245892 0.000000
5.790619 8.472697 -0.631112 0.000000
12.899290 3.421376 -1.978230 0.000000
44.075085 -36.231850 -1.822425 0.000000
95.838928 -4.229459 -1.637863 0.000000
9.714784 13.960602 -1.315860 0.000000
55.283077 -25.988890 -1.296020 0.000000
15.898814 -17.592331 0.848312 0.000000
19.699972 -11.922032 -1.837360 0.000000
35.403393 1.266546 -2.065223 0.000000
11.116615 -16.986546 0.758631 0.000000
6.494797 -6.496386 -0.608944 0.000000
11.418463 -6.181551 -1.966166 0.000000
27.046921 -21.560421 -1.417063 0.000000
31.871912 8.245402 -0.648982 0.000000
25.454435 7.117730 -1.872534 0.000000
96.176826 8.186435 -1.440207 0.000000
47.722202 -36.356945 -0.706291 0.000000
14.892514 -14.965898 -0.688368 0.000000
60.403149 -23.037697 -1.368715 0.000000
8.828824 7.872747 -1.801561 0.000000
41.855175 -30.602095 -2.044677 0.000000
7.986327 -6.187904 -1.290943 0.000000
18.291559 -8.772963 -1.990171 0.000000
26.061146 -20.837040 6.217718 0.000000
12.000572 11.897714 -1.807323 0.000000
5.659767 -6.241903 -1.122936 0.000000
9.974424 2.390357 -1.967465 0.000000
44.084339 -3.638211 -1.048311 0.443137
44.234348 -13.160365 -1.936065 0.000000
13.296690 -17.782362 1.139480 0.000000
44.014946 -13.856705 2.157823 0.000000
62.268677 64.075607 6.556679 0.000000
16.922304 -9.010153 -1.983925 0.000000
10.902501 12.031376 -1.801503 0.000000
29.523483 -15.811648 4.298042 0.000000
47.986233 -39.237453 -0.597208 0.000000
21.921919 12.892502 -0.343033 0.000000
10.800965 5.874856 -1.966778 0.000000
32.430511 30.306643 3.274600 0.000000
18.059168 0.469068 -1.446028 0.211765
53.226505 -41.413101 0.801620 0.000000
18.923290 4.373304 -2.001225 0.000000
28.803913 -16.868011 -1.592075 0.000000
118.148972 155.127350 12.391580 0.000000
15.043166 -15.508638 -0.367024 0.000000
24.455683 -13.609786 -1.854343 0.000000
34.325180 26.129051 3.275214 0.000000
28.734604 -16.125347 6.833699 0.000000
136.131088 -28.113087 11.759303 0.000000
130.719803 -28.229534 5.209267 0.000000
44.687462 -3.890896 -0.823865 0.443137
68.678940 -8.591686 -0.400601 0.000000
12.925203 8.368541 -0.818761 0.000000
18.466345 5.465599 -1.998609 0.000000
10.241962 2.729393 -1.968275 0.000000
10.490822 -16.402548 0.207120 0.000000
18.261948 -10.640053 -1.833889 0.000000
35.578049 10.542674 -1.731823 0.000000
9.148793 6.144861 -1.938545 0.000000
10.453887 15.415428 -0.584213 0.000000
9.991438 8.867557 -1.804818 0.000000
48.797325 10.111280 4.097305 0.000000
16.326365 14.291853 -0.383898 0.000000
27.811884 -21.289515 1.583464 0.000000
7.875368 4.722245 -1.956074 0.000000
46.592293 13.360416 6.969435 0.000000
46.944313 8.964129 0.748754 0.000000
7.027457 -6.238865 -0.944447 0.000000
55.379162 -29.369606 -0.162952 0.000000
46.953407 -42.155563 -0.826847 0.000000
43.361797 -11.687197 -1.934472 0.000000
6.568677 -6.233865 -1.001053 0.000000
18.060328 -3.015193 -0.911074 0.000000
6.815878 -6.680461 -0.472830 0.000000
9.102057 3.683040 -1.962770 0.000000
6.523866 8.469967 -0.833342 0.000000
94.092178 -0.751568 -0.917949 0.000000
11.747306 -4.437230 -1.970691 0.000000
19.468172 -9.944945 -1.982862 0.000000
34.976849 -10.243874 -1.966182 0.000000
46.944050 14.193545 0.760658 0.000000
7.127039 -6.202910 -1.180057 0.000000
8.591779 -6.189487 -1.641807 0.000000
4.388219 6.768880 -0.157160 0.000000
60.569656 -34.611736 1.921738 0.000000
37.165623 2.164449 -0.876455 0.717647
15.738004 18.992275 0.871111 0.000000
90.969872 10.071655 -1.313546 0.000000
9.402657 0.644046 -1.965885 0.000000
9.381258 8.589651 -1.802539 0.000000
14.188696 -17.576710 0.953708 0.000000
62.815090 -23.304422 -1.042674 0.000000
8.049703 -1.310691 -1.959965 0.000000
59.832745 -34.821144 1.780975 0.000000
98.090393 110.564178 16.136450 0.000000
26.971199 -7.448593 -2.027339 0.000000
48.517738 7.767422 -1.524226 0.000000
46.376041 10.653015 0.341072 0.000000
17.420223 9.535246 -1.836847 0.000000
26.144054 -20.367117 2.266717 0.000000
48.379105 1.140815 -2.114736 0.000000
11.444754 19.191236 0.570619 0.000000
25.809338 -20.799852 6.130484 0.000000
131.160095 -28.713341 4.863513 0.000000
51.778397 -28.726116 -1.309191 0.000000
11.023624 -14.309394 -1.083397 0.000000
19.180069 0.050361 -0.710606 0.211765
10.780682 9.067536 -1.808106 0.000000
12.721044 -17.668957 1.108997 0.000000
16.654076 12.787540 -0.792688 0.000000
45.707516 12.319502 1.452719 0.000000
11.945248 13.265602 -1.665437 0.000000
26.360010 35.890358 4.135242 0.000000
11.551264 13.354495 -1.620800 0.000000
68.449112 -4.934401 -1.782663 0.000000
100.123550 -32.945312 4.185474 0.000000
51.160461 23.004303 6.441792 0.000000
14.241248 13.965536 -0.834686 0.000000
10.657847 -16.528852 0.334228 0.000000
62.755867 -24.611706 -0.554691 0.000000
27.356558 -16.601337 2.025057 0.000000
17.265795 0.455148 -1.995904 0.000000
11.756621 6.708614 0.582223 0.000000
35.862026 3.092543 -0.927643 0.713726
18.173410 -0.621005 -1.002556 0.215686
19.986376 16.440687 0.417916 0.000000
119.093109 -30.794456 8.449841 0.000000
20.137939 12.982129 -0.258401 0.000000
13.095108 8.472729 -1.333552 0.000000
7.335882 -0.532933 -1.957748 0.000000
45.274521 32.219917 3.778151 0.000000
6.533758 -6.209580 -1.234482 0.000000
21.372223 11.361571 -1.297454 0.000000
45.605919 7.794551 -0.936553 0.000000
26.940624 -21.684132 0.193467 0.000000
73.050537 5.648706 0.615088 0.000000
13.489842 -6.847411 -1.973643 0.000000
10.804430 13.583628 -1.505618 0.000000
101.679619 -26.522121 1.006120 0.000000
22.730556 2.364591 -2.016737 0.000000
57.776398 -30.117264 0.477501 0.000000
21.210585 13.729068 0.194698 0.000000
46.865902 8.987802 2.866198 0.000000
15.930765 4.383286 -1.989455 0.000000
9.737938 -16.166029 -0.139618 0.000000
71.780708 10.482467 -1.865619 0.000000
27.617086 -16.060659 5.754346 0.000000
14.258654 -16.902117 0.536802 0.000000
54.770828 -46.558498 1.162604 0.000000
26.324722 -18.522486 2.298801 0.000000
28.802208 -16.901520 0.952988 0.000000
116.731628 -21.386995 -1.433556 0.000000
25.028425 36.908073 2.609294 0.000000
9.320498 3.308941 -1.964079 0.000000
12.788173 20.851860 0.889204 0.000000
26.327988 -16.594868 1.576842 0.000000
13.068084 14.527938 -0.863919 0.000000
13.609535 17.606619 0.630215 0.000000
60.173607 -41.220570 2.748199 0.000000
45.523575 -3.261783 -1.564109 0.439216
25.413973 3.992102 -2.026617 0.000000
25.316271 -13.386566 -1.858479 0.000000
18.607042 13.962678 -0.415442 0.000000
11.478492 -1.299834 -1.973174 0.000000
5.776685 -6.554899 -0.739053 0.000000
132.184662 -28.711718 13.522201 0.000000
15.801795 13.472547 -0.680880 0.000000
19.450216 -4.494694 -2.001200 0.000000
9.803662 -6.040263 -1.959483 0.000000
9.402746 -1.760711 -1.964809 0.000000
46.760735 11.012287 3.805806 0.000000
7.720971 8.426242 -0.839820 0.000000
19.658421 2.383753 -2.004938 0.000000
149.586380 -26.576323 0.739452 0.000000
9.682820 -16.271414 -0.081602 0.000000
15.973863 -15.865119 -0.213457 0.000000
11.499054 18.834866 0.527978 0.000000
130.596390 -30.062649 7.519809 0.000000
24.146297 10.750499 -1.544374 0.000000
128.078659 4.912834 -0.000971 0.000000
80.920319 9.045858 -1.874826 0.000000
18.563398 -7.498095 -0.902396 0.000000
73.298607 -64.434998 13.463428 0.000000
22.526913 16.040277 1.016330 0.000000
10.609524 -15.042045 -0.688043 0.000000
26.688225 -20.263142 1.882619 0.000000
18.661135 -2.523647 -1.999939 0.000000
39.680176 6.856308 -1.928233 0.000000
9.522286 8.598218 -1.803197 0.000000
11.825940 6.721378 -1.614377 0.000000
71.320007 88.497185 6.731274 0.000000
89.588531 -23.026430 -0.828955 0.000000
10.091831 -15.027604 -0.825845 0.000000
46.147678 12.064156 4.435206 0.000000
148.471527 -23.046074 3.198447 0.000000
59.583462 -42.112648 2.561325 0.000000
18.046507 -0.262912 -1.400998 0.215686
15.535454 11.757845 -1.514408 0.000000
8.506111 8.384498 -1.457109 0.000000
9.522881 -5.772000 -1.958848 0.000000
49.332905 -38.487415 -0.254886 0.000000
12.309982 15.683021 -0.450050 0.000000
57.185051 -23.205885 -1.798748 0.000000
129.251907 -29.913948 6.300563 0.000000
7.927406 4.535261 -1.956617 0.000000
47.920677 -31.039364 -1.892245 0.000000
36.397728 33.936436 6.846868 0.000000
14.627524 12.117765 -1.571333 0.000000
12.425726 17.104298 0.264763 0.000000
32.131207 16.315189 0.585920 0.000000
18.463690 -9.934310 -1.936390 0.000000
7.261688 -6.187611 -1.330977 0.000000
9.626499 -4.157199 -1.962476 0.000000
18.177385 -4.640118 -1.731971 0.000000
5.446715 -6.500081 -0.806710 0.000000
9.859043 -14.408158 -1.304295 0.000000
93.813782 -1.666743 -0.465753 0.000000
9.441437 -15.671103 -0.549234 0.000000
4.333749 6.795630 0.159146 0.000000
5.617694 -6.767270 -0.702240 0.000000
12.358193 -4.193781 -1.973526 0.000000
7.659898 8.431240 -1.458568 0.000000
60.277596 -29.078819 0.590044 0.000000
10.583117 8.402976 -1.343632 0.000000
20.914276 13.649905 0.137868 0.000000
18.372423 1.407907 -2.000157 0.000000
23.996983 7.249623 -1.866642 0.000000
7.682705 -6.193608 -1.623941 0.000000
71.444298 -35.412937 15.944931 0.000000
13.116397 8.459486 -1.131975 0.000000
6.767979 -6.227020 -1.018653 0.000000
17.671913 -3.567722 -1.214802 0.000000
9.529131 14.007976 -1.291970 0.000000
46.653091 10.903526 3.589770 0.000000
22.485270 2.539318 -2.015762 0.000000
51.702583 -31.711039 -0.509096 0.000000
99.389061 -35.810051 5.832182 0.000000
22.853117 -13.118119 -1.848471 0.000000
10.121716 8.281333 -1.806752 0.000000
23.984638 12.844541 -0.336030 0.000000
146.443680 -27.056496 4.258873 0.000000
39.324738 51.267765 3.211555 0.000000
14.515987 4.358096 -1.983868 0.000000
14.088285 -16.718452 0.436034 0.000000
10.430986 2.130509 -1.969404 0.000000
43.644028 -3.383207 -1.449811 0.439216
27.009056 -21.586512 1.041035 0.000000
26.943830 -14.979927 4.888125 0.000000
10.933727 16.012726 -0.283892 0.000000
27.760855 8.111577 -0.758622 0.000000
9.793999 -14.920278 -0.972381 0.000000
47.514881 10.127803 4.007703 0.000000
91.435135 5.479795 -0.025815 0.000000
7.704874 4.128597 -1.956323 0.000000
9.535640 -2.993604 -1.963913 0.000000
11.755740 6.746311 0.234760 0.000000
11.981675 -17.232548 0.892135 0.000000
21.090811 13.263390 -0.096495 0.000000
9.737877 3.618686 -1.965434 0.000000
59.335518 -55.949993 2.063307 0.000000
8.095587 -6.414505 -0.794740 0.000000
9.186536 7.960573 -1.803063 0.000000
85.490570 -35.196728 5.580662 0.000000
142.853989 -22.013248 -1.286359 0.000000
17.487207 12.693816 -0.863270 0.000000
25.846874 34.912209 3.121794 0.000000
25.538725 -20.064344 4.067969 0.000000
25.198267 11.632152 -0.855251 0.000000
9.144947 -0.498653 -1.964677 0.000000
12.244866 8.393862 -1.348723 0.000000
11.615893 -15.704476 -0.017214 0.000000
13.341002 18.863781 0.835511 0.000000
82.466698 -28.215824 1.787441 0.000000
12.208171 2.347238 -1.976202 0.000000
63.455208 -24.039667 -0.729203 0.000000
12.863256 17.234497 0.330144 0.000000
39.878643 -4.889730 -2.079868 0.000000
9.953957 -16.374969 0.055748 0.000000
16.878145 -9.447554 -1.982839 0.000000
46.165276 11.840142 4.391249 0.000000
96.107918 30.095217 -1.325890 0.000000
11.565320 -16.300385 0.350420 0.000000
19.541697 14.742596 -0.020401 0.000000
113.969810 -45.233711 9.763606 0.000000
14.892913 -15.717488 -0.229408 0.000000
22.298956 14.941572 0.748762 0.000000
19.728691 -6.635069 -0.836587 0.000000
103.919601 -35.649296 17.606085 0.000000
16.189806 18.527710 0.724864 0.000000
38.284706 34.308735 8.156688 0.000000
8.635334 -2.532313 -1.960944 0.000000
8.638835 2.778657 -1.961871 0.000000
8.993108 7.404262 -1.803395 0.000000
16.452669 -16.782953 0.316807 0.000000
10.635300 4.197339 -1.968424 0.000000
11.044145 -15.722772 -0.118058 0.000000
29.533243 8.063849 -0.918286 0.000000
62.110802 62.109222 9.125017 0.000000
12.667322 -14.807423 -0.636063 0.000000
20.681395 -9.181894 -1.999381 0.000000
149.852951 73.505814 4.973380 0.000000
60.904888 -32.508389 1.509540 0.000000
35.190014 9.778261 -1.908912 0.000000
8.490601 -5.130190 -1.955753 0.000000
10.677916 -17.336740 0.888244 0.000000
26.008680 -15.414726 4.125689 0.000000
20.874718 8.364593 -1.852911 0.000000
26.067823 -22.661720 2.263970 0.000000
46.225437 11.354111 4.306197 0.000000
14.857091 -18.084187 1.218833 0.000000
63.124779 63.145576 10.655075 0.000000
5.625550 -6.281888 -1.000503 0.000000
76.796684 -35.034397 7.434561 0.000000
63.799068 62.226139 10.604177 0.000000
24.072044 -22.955305 3.078426 0.000000
12.839618 14.258855 -1.039662 0.000000
30.681860 12.173401 -0.783720 0.000000
13.605111 -15.281159 -0.409588 0.000000
43.984566 -13.880156 3.249913 0.000000
17.901354 12.464587 -0.885134 0.000000
92.005730 4.905877 -2.129179 0.000000
65.747818 69.057175 8.179562 0.000000
8.570843 8.859467 -1.797916 0.000000
14.971513 -19.079752 1.726080 0.000000
26.524651 -16.065426 1.280905 0.000000
24.257296 15.007393 0.983589 0.000000
30.506245 11.229547 -1.090594 0.000000
16.270960 -16.653070 0.249663 0.000000
9.307953 8.414049 -0.683170 0.000000
82.144112 8.607381 -1.459455 0.000000
51.611271 -14.126741 -2.116463 0.000000
11.132971 16.017288 -0.281664 0.000000
33.456688 11.615853 -1.000861 0.000000
20.006195 16.065580 0.352393 0.000000
11.000906 13.458823 -1.568377 0.000000
15.940983 11.934736 -1.337463 0.000000
47.851330 14.794044 2.115605 0.000000
103.427498 -26.276684 0.838700 0.000000
16.408251 12.745708 -0.861202 0.000000
36.960285 -4.760622 -2.068737 0.000000
47.905251 -25.482578 -1.930380 0.000000
68.289734 -26.804770 0.685094 0.000000
5.056286 -6.683805 -0.849900 0.000000
26.180748 -20.693586 3.793347 0.000000
11.043628 1.207807 -1.972105 0.000000
12.987486 -2.705823 -1.977834 0.000000
19.507879 -2.894506 -0.903086 0.000000
47.569157 -36.357460 -0.746381 0.000000
16.331694 13.166790 -0.690661 0.000000
19.244865 12.601612 -0.502732 0.000000
18.920441 -2.830432 -1.005056 0.000000
44.577614 -36.875031 -1.516649 0.000000
9.660281 1.577283 -1.966673 0.000000
65.836372 71.843178 10.235217 0.000000
14.943350 -18.303066 1.346778 0.000000
62.099785 -57.919918 2.675334 0.000000
63.898434 -50.699360 3.684093 0.000000
29.752329 4.385621 -2.043218 0.000000
12.048556 -18.191547 1.473905 0.000000
103.862251 -34.317123 15.653187 0.000000
9.952693 -16.400192 0.072576 0.000000
4.284580 6.913479 -0.187945 0.000000
9.796110 3.252022 -1.966050 0.000000
68.582817 -7.514981 -1.239672 0.000000
11.492206 -1.180663 -1.973304 0.000000
10.805357 13.681645 -1.456331 0.000000
14.387590 12.511048 -1.452526 0.000000
25.651941 -2.820955 -2.026600 0.000000
124.468414 -5.330042 -2.403210 0.000000
20.636742 8.444831 -1.161887 0.000000
137.974243 -29.269257 0.988777 0.000000
43.467781 -4.313362 -1.370927 0.443137
17.740822 -8.059654 -1.989183 0.000000
129.979614 -31.184395 10.034266 0.000000
5.343231 -6.360528 -0.920979 0.000000
14.043634 -17.662565 1.015940 0.000000
7.442714 -6.214843 -1.044881 0.000000
59.094917 16.253744 -1.998280 0.000000
17.979782 11.983486 -0.954979 0.000000
32.789196 10.819210 -1.366107 0.000000
61.957626 -57.275784 2.699700 0.000000
12.176423 13.239527 -1.656839 0.000000
13.807345 14.293087 -0.791838 0.000000
14.140704 14.183299 -0.761055 0.000000
19.718634 20.943615 1.197598 0.000000
28.432076 -14.491726 1.025112 0.000000
19.124563 2.163579 -2.002936 0.000000
7.625938 -6.190822 -1.340301 0.000000
71.543655 21.448334 -1.537333 0.000000
59.976582 -24.635073 -0.796987 0.000000
16.770382 -3.854213 -1.991407 0.000000
15.670498 13.360092 -0.762926 0.000000
14.239079 9.126999 -1.823723 0.000000
12.604068 0.430100 -1.978107 0.000000
15.677810 8.288584 -0.796651 0.000000
13.279614 -15.437324 -0.292349 0.000000
22.985418 11.436808 -1.275351 0.000000
22.860428 8.182092 -0.834690 0.000000
12.596576 17.733965 0.581458 0.000000
13.109348 -17.917475 1.234699 0.000000
9.618482 -15.234897 -0.801950 0.000000
12.817520 12.958259 -1.629158 0.000000
6.388741 8.455103 -0.793118 0.000000
8.071888 0.501953 -1.960800 0.000000
29.298389 8.062103 -0.873331 0.000000
21.655821 -9.787409 -2.002344 0.000000
53.589382 26.138485 2.167446 0.000000
7.571515 2.455333 -1.957910 0.000000
24.001822 12.829900 -0.341907 0.000000
16.371630 19.581146 0.988734 0.000000
58.984501 -25.265652 -0.755807 0.000000
27.649670 35.037880 2.542274 0.000000
19.272211 19.302877 0.769187 0.000000
8.005738 -4.725617 -1.954523 0.000000
26.710524 -19.841457 1.668730 0.000000
80.135941 -19.023962 -2.070542 0.000000
17.865808 -13.158529 -1.826288 0.000000
9.773823 -14.876746 -1.006951 0.000000
36.757103 35.642429 3.956465 0.000000
12.564820 -18.488773 1.620715 0.000000
16.450546 12.609156 -0.912297 0.000000
8.437161 -6.212659 -1.075532 0.000000
97.697746 -25.049744 -0.041944 0.000000
19.821604 0.064509 -0.553331 0.211765
91.435371 5.515725 -0.120881 0.000000
12.398449 -7.726505 -1.967102 0.000000
27.819098 7.101345 -1.881874 0.000000
55.901165 -35.345158 1.131530 0.000000
15.078825 8.325197 -1.442484 0.000000
19.077616 3.544159 -2.002286 0.000000
6.345643 -6.194573 -1.378725 0.000000
12.742620 17.553450 0.490606 0.000000
12.640932 14.630952 -0.920199 0.000000
14.801465 12.364000 -1.419005 0.000000
21.079597 18.010527 1.004117 0.000000
15.497179 -20.451813 2.141871 0.000000
58.821327 -56.650513 1.857357 0.000000
9.344861 2.064425 -1.965208 0.000000
6.729596 -6.280973 -0.871689 0.000000
12.976348 13.079472 -1.536553 0.000000
43.894749 -13.959439 0.282118 0.000000
7.968344 2.421242 -1.959525 0.000000
10.166420 -15.045570 -0.795190 0.000000
13.521439 17.560848 0.607774 0.000000
14.079439 12.330781 -1.607552 0.000000
10.739883 14.523424 -1.032984 0.000000
12.858401 14.928590 -0.734258 0.000000
33.811150 8.020448 -0.957828 0.000000
13.870367 -14.968273 -0.618482 0.000000
16.909349 8.111809 -1.836844 0.000000
25.994375 -20.360754 3.421200 0.000000
8.978679 1.154035 -1.964184 0.000000
12.345938 -6.187504 -1.970092 0.000000
10.421483 -16.160063 0.025203 0.000000
8.691540 -3.307246 -1.960058 0.000000
5.789622 -6.478090 -0.808613 0.000000
81.111954 -36.009155 7.724326 0.000000
8.603351 -6.189539 -1.668368 0.000000
6.919563 -6.195001 -1.400957 0.000000
8.914010 3.598217 -1.962103 0.000000
46.951118 13.274409 1.994081 0.000000
25.226208 -20.272217 4.076704 0.000000
24.353153 8.267014 -1.417098 0.000000
46.525330 32.973007 5.707064 0.000000
19.919497 15.270823 0.179462 0.000000
93.954781 -8.968427 -0.795127 0.000000
12.008417 1.895876 -1.975624 0.000000
10.191132 3.386206 -1.967501 0.000000
76.930222 -3.402127 -2.222416 0.000000
84.318413 -34.585819 12.717020 0.000000
22.905167 14.690185 0.772733 0.000000
8.691898 6.168269 -1.855465 0.000000
46.696079 10.577678 1.092543 0.000000
14.228099 -3.133142 -1.982234 0.000000
23.749001 10.876654 -1.534055 0.000000
18.701506 13.121537 -0.548966 0.000000
12.300281 6.097259 -1.891025 0.000000
23.613970 -22.161833 2.758289 0.000000
30.314625 13.077884 -0.506975 0.000000
27.981026 36.191109 3.088985 0.000000
68.495239 -4.078237 -1.781019 0.000000
25.702717 4.849566 -2.027370 0.000000
5.754699 -7.036168 -0.643401 0.000000
25.736074 -21.654636 6.048040 0.000000
63.733257 61.656910 9.528445 0.000000
18.255892 -2.122339 -1.998657 0.000000
18.383183 13.782258 -0.508853 0.000000
30.688385 27.196659 3.019772 0.000000
31.909868 28.643335 4.054506 0.000000
45.874401 10.350453 0.162076 0.000000
13.234982 -3.124977 -1.978364 0.000000
11.204556 0.600476 -1.972772 0.000000
75.503593 -73.707108 5.915120 0.000000
8.274432 -5.931558 -1.952931 0.000000
8.143896 -0.273039 -1.960942 0.000000
43.180714 -1.511789 -0.918103 0.000000
12.159162 -15.110805 -0.416568 0.000000
45.590580 32.122944 4.310775 0.000000
18.069876 -0.150175 -1.242313 0.215686
10.518824 15.429254 -0.577278 0.000000
35.216385 27.272404 4.664299 0.000000
9.949691 14.621175 -0.983621 0.000000
9.568104 6.405933 -1.808070 0.000000
50.743580 -31.471806 -0.892611 0.000000
118.647308 -25.997343 0.337777 0.000000
13.013475 -14.822048 -0.650347 0.000000
21.115456 -9.241872 -2.001072 0.000000
31.941624 30.713039 3.083736 0.000000
10.485392 -14.926355 -0.797349 0.000000
32.168201 28.769480 5.115081 0.000000
12.702566 12.855360 -1.702991 0.000000
44.452103 13.108809 1.336612 0.000000
7.023979 8.433245 -0.826238 0.000000
12.414138 -14.393813 -0.871737 0.000000
17.475721 -2.891415 -1.995076 0.000000
47.547367 11.076511 7.965190 0.000000
26.710371 -20.246799 4.344610 0.000000
49.544281 -21.913633 -1.949003 0.000000
26.381247 -20.494448 3.829680 0.000000
10.489429 15.516109 -0.533573 0.000000
108.984886 -44.213657 9.300999 0.000000
18.352167 -6.993858 -1.317170 0.000000
66.327568 70.182655 9.443655 0.000000
10.770698 -14.552001 -0.981143 0.000000
71.446182 15.466816 -1.293776 0.000000
25.223423 13.061165 -0.008795 0.000000
11.618919 19.166527 0.605566 0.000000
30.648993 11.694052 -0.937744 0.000000
28.711802 -13.692103 4.232832 0.000000
103.524826 -35.192696 19.301821 0.000000
6.013847 -6.348883 -0.803228 0.000000
27.482750 8.260702 -1.879620 0.000000
34.946274 26.992315 5.113374 0.000000
18.642660 -8.059672 -1.527262 0.000000
24.288599 5.536165 -2.021482 0.000000
18.817965 17.606298 0.338181 0.000000
7.985666 -6.196846 -1.134201 0.000000
47.211372 -6.792159 -1.798272 0.227451
36.716702 2.245456 -0.842390 0.717647
18.064980 -4.195085 -0.687434 0.000000
11.511451 -14.822185 -0.614361 0.000000
36.339737 26.446653 2.443023 0.000000
28.701521 -16.959311 0.240479 0.000000
47.547230 -11.609138 -2.103434 0.000000
15.877416 -8.100401 -1.981295 0.000000
51.781742 24.884548 8.389652 0.000000
9.005357 -6.225778 -1.252175 0.000000
62.686165 63.193531 8.033188 0.000000
71.649788 -63.438721 6.990359 0.000000
20.886232 -6.643366 -0.865068 0.000000
17.615557 7.249155 -1.840915 0.000000
9.887979 -16.232878 -0.057123 0.000000
71.441360 13.731941 -0.825347 0.000000
51.210617 8.326699 1.576337 0.000000
7.862625 -2.027939 -1.958516 0.000000
8.006531 3.761053 -1.958141 0.000000
15.415600 -15.170878 -0.598191 0.000000
37.430458 28.545927 7.748947 0.000000
11.492429 -14.681879 -0.714384 0.000000
13.536920 13.786173 -1.084483 0.000000
66.885696 76.970459 8.634704 0.000000
6.990983 -6.227716 -0.990853 0.000000
36.597176 34.656960 4.878833 0.000000
95.146179 -33.291794 4.515200 0.000000
5.747961 -6.731801 -0.663967 0.000000
12.448701 -14.703555 -0.684839 0.000000
33.039486 30.083719 5.918906 0.000000
11.286553 14.328110 -1.131289 0.000000
17.331102 -15.093100 -0.994213 0.000000
35.761410 2.904396 -0.940849 0.713726
20.157410 19.284883 1.000340 0.000000
25.485376 -20.105602 3.109511 0.000000
8.292869 0.984534 -1.961589 0.000000
15.604119 -0.050209 -1.989474 0.000000
9.733804 8.423318 -0.765991 0.000000
16.960522 6.260754 -1.839395 0.000000
27.314295 -16.838938 2.468601 0.000000
13.425401 15.020182 -0.556968 0.000000
11.928458 -6.921362 -1.966815 0.000000
10.275975 -16.537725 0.245913 0.000000
21.668139 4.974034 -2.011585 0.000000
24.937113 -21.747169 3.624306 0.000000
32.700771 14.051359 -0.118618 0.000000
10.567533 14.957815 -0.814460 0.000000
16.953201 10.195401 -1.833723 0.000000
11.757804 6.897353 0.131260 0.000000
43.548889 -0.831267 -0.481905 0.000000
9.655790 9.671062 -1.801267 0.000000
12.324970 -14.485273 -0.809882 0.000000
27.663832 7.894389 -1.880650 0.000000
28.097021 -15.055108 1.352796 0.000000
26.395536 12.055457 -0.412836 0.000000
11.750335 6.407455 0.288818 0.000000
13.585086 -0.880961 -1.981476 0.000000
50.208549 -2.441581 -2.120739 0.000000
12.650138 -17.244701 0.854456 0.000000
9.716182 13.855522 -1.368717 0.000000
76.750504 -35.089485 5.521661 0.000000
62.539146 -30.974405 1.568365 0.000000
12.425906 16.603878 0.013054 0.000000
64.949493 70.977058 6.763321 0.000000
13.895732 16.534002 0.236116 0.000000
42.930210 -0.972304 -0.781373 0.000000
51.250465 26.384104 7.392854 0.000000
147.927826 -26.304874 9.088329 0.000000
14.842764 5.630527 -1.983905 0.000000
12.663956 15.387219 -0.574856 0.000000
56.545540 -29.745075 0.200423 0.000000
66.953697 77.505524 8.373285 0.000000
49.050095 -42.148434 -0.278030 0.000000
15.473510 -3.450547 -1.986767 0.000000
86.256401 -62.466110 7.948811 0.000000
20.130836 14.633792 0.115392 0.000000
36.450691 -17.152201 -1.898161 0.000000
25.322886 13.649361 0.354071 0.000000
46.173126 11.937933 0.358584 0.000000
17.729746 -1.931679 -1.996763 0.000000
5.438745 -6.369711 -0.889675 0.000000
10.185730 -17.032843 0.560129 0.000000
11.040785 18.300421 0.343991 0.000000
6.413544 -6.310613 -0.874668 0.000000
15.167962 0.575440 -1.987908 0.000000
37.241306 34.285175 5.137455 0.000000
55.571083 -38.387161 1.291391 0.000000
55.578846 -38.482258 1.302220 0.000000
117.357071 -128.209732 13.320771 0.000000
103.416206 -36.233406 17.276499 0.000000
98.281151 -14.085111 -2.297943 0.000000
13.007483 19.186533 0.833243 0.000000
86.360741 7.814263 0.843228 0.000000
68.618210 -8.730143 -0.606947 0.000000
26.548220 -20.710314 6.317537 0.000000
18.763288 2.697196 -2.001406 0.000000
14.077711 16.610758 0.314290 0.000000
6.776074 -6.330742 -0.796766 0.000000
12.079670 3.245763 -1.975132 0.000000
15.074085 17.174139 0.435356 0.000000
20.536106 10.818501 -1.625900 0.000000
46.648453 8.951576 0.678638 0.000000
18.695091 13.586484 -0.463017 0.000000
14.011692 -2.223350 -1.982244 0.000000
58.337994 -25.980320 -0.656550 0.000000
7.150992 -6.813414 -0.456291 0.000000
19.857851 -3.807469 -2.003484 0.000000
32.002838 14.331126 -0.051973 0.000000
94.457664 -0.723481 -0.540965 0.000000
25.431408 8.136433 -1.871555 0.000000
16.654184 8.778926 -1.834772 0.000000
65.964760 68.725929 8.213700 0.000000
9.015010 -5.975223 -1.956150 0.000000
23.036581 11.428192 -1.281573 0.000000
54.533710 -7.286530 -2.134535 0.000000
19.521774 -0.696684 -0.616960 0.215686
17.059608 -5.462500 -1.990565 0.000000
15.411572 13.973740 -0.549717 0.000000
18.858698 14.177806 -0.308104 0.000000
67.390907 -25.781351 0.149619 0.000000
8.190922 3.279188 -1.959526 0.000000
